ply
format ascii 1.0
element vertex 705
property float x
property float y
property float z
property float nx
property float ny
property float nz
end_header
15.237049 21.943498 1.6471245 0.034774417 0.6046941 0.7956983 
-5.3965506 -11.075412 12.833088 -0.47707577 -0.73964329 0.47468571 
-37.48922 10.893393 -5.2148748 -0.95723622 -0.031126474 -0.28762817 
-20.7735 -23.471274 0.93534074 -0.016793197 -0.90780543 0.41905524 
-36.705832 -17.724132 -1.016812 -0.9029324 -0.4069418 0.13824416 
-7.8223064 -13.944624 -7.6551226 0.00010808167 -1.1318486e-05 -0.99999999 
-4.7531045 -9.9845363 -7.654059 6.4229248e-05 2.800464e-05 -1 
28.086574 17.385067 -30.135244 -0.89143519 0.2110605 -0.40099472 
0.11908817 -18.148072 -7.6419466 -0.0037212362 -0.17710759 -0.98418446 
37.491163 12.330676 -9.5956999 0.99999991 -5.0386231e-05 -0.00041477005 
11.678422 21.650163 1.6508393 0.0073940958 0.48602615 0.87391299 
-16.983153 -3.5516257 -7.6464482 0.0001022939 0.00044336064 -0.9999999 
28.071092 22.199093 -25.343031 0.4855185 -0.80966452 0.3297198 
7.5977546 -11.060492 25.817373 -0.47527951 -0.73943071 0.47681403 
-5.427977 -16.456732 -7.6473694 -0.059330896 -0.078612312 -0.99513816 
-13.358793 -12.281193 -7.6448947 -0.00013683303 -5.4499945e-06 -0.99999999 
-37.499749 12.115754 -2.5780803 -0.99999565 0.0014957585 -0.0025428364 
31.948509 23.44908 -1.7147218 0.055685244 0.99127712 0.11945221 
3.9094139 0.68355183 18.116696 0.62619851 -0.69026231 -0.36250982 
28.089512 -9.5510671 -29.45397 -0.99290218 -0.047027717 -0.10924127 
-37.490937 2.3729516 0.36658216 -0.84687422 0.067322264 0.5275147 
8.0179824 -6.1632795 31.020041 0.30506442 -0.18873608 0.93344223 
-2.7308428 -11.939234 14.03904 -0.42818902 -0.79616094 0.42753002 
-35.44799 -4.1143267 1.6516635 -0.37073155 -0.021598934 0.92848888 
37.476673 -5.2036482 -10.908221 1 -3.4238559e-05 -3.9231261e-05 
-24.277832 -0.10664193 1.6303906 -0.27331654 -0.032079512 0.96138909 
6.5070005 -22.825652 -7.6531739 0.0029651235 -0.71700362 -0.69706313 
37.493036 10.473171 -2.9142043 0.99622771 0.022698585 0.083756375 
-25.765111 0.090431768 -7.6523532 0.000611611 0.00059442307 -0.99999964 
-23.055352 -0.38165808 2.1028048 -0.43916104 -0.021023249 0.89816235 
-33.048291 20.292625 1.65014 -0.26540251 0.38725989 0.88294467 
-28.830992 20.678279 1.6524464 -0.079275667 0.20756772 0.97500308 
21.068728 6.3920859 18.156066 0.60998057 -0.11845833 0.78351217 
-37.490417 -0.92798311 -5.8071912 -0.9679814 0.0088447903 -0.25086605 
28.094015 16.349922 -30.066478 -0.96829418 0.11420284 -0.22218032 
31.06518 -23.443391 -8.429909 -0.23345228 -0.94528385 -0.22790013 
-25.27715 10.614407 -6.2556693 -0.47161741 0.53969875 -0.69735377 
-20.269914 2.434591 4.6001946 -0.69705055 0.14831569 0.70151478 
-32.816526 20.232173 -7.6591832 -0.22372016 0.2063076 -0.95256835 
1.7614152 -7.8272488 23.794452 -0.60324584 -0.52172003 0.60324345 
28.09602 4.3668975 -13.580218 -0.99987166 0.010249088 -0.012313381 
30.637503 -22.61392 -26.459192 -0.44559415 -0.77994002 -0.4394763 
2.9882601 -4.4940986 -7.654941 -3.7636305e-06 -3.7680833e-05 -1 
-16.813299 4.4722708 7.4028697 -0.67512075 0.29744514 0.67508396 
18.963546 -14.935232 6.3224965 0.10219793 -0.98671647 0.12627822 
20.536797 -5.1249683 17.217795 0.48472147 0.18180239 0.85556589 
-17.125235 -17.000582 1.6449064 -0.086733125 -0.062051464 0.99429723 
5.0164252 -6.6541101 -7.6546367 -3.0157863e-05 1.5728651e-05 -1 
4.6879605 -13.988773 -7.6536842 -0.00016379613 -0.00027119845 -0.99999995 
-19.21548 7.0972862 -7.6588517 -0.00029312738 -0.00030966022 -0.99999991 
16.522459 7.2460568 20.722754 0.69821544 -0.13810494 0.70244019 
-5.4685903 1.7593435 19.547182 -0.70340226 0.11776387 0.70096857 
36.028815 -12.299054 -18.570669 0.84983314 -0.28665685 -0.44227987 
-15.160485 -5.3316472 -7.6621022 -0.00020960066 0.00029929456 -0.99999993 
-21.462838 -8.964371 -7.6469608 -0.034792241 -0.016086263 -0.9992651 
28.082632 2.570437 -31.394659 -0.94061825 -0.0067629817 -0.33939883 
-0.77499797 5.4702329 22.890024 -0.65154608 0.37160152 0.66136224 
-37.506017 0.13469552 -7.2811131 -0.66823622 0.050857912 -0.74220875 
32.887282 -23.450261 -18.414252 -0.073830356 -0.99712029 0.017326535 
-1.4852459 0.95090263 23.60918 -0.70231445 0.063845673 0.70899799 
28.087418 12.573736 -10.454674 -0.87206297 -0.0013081938 -0.48939194 
-37.364932 12.464074 1.5928559 -0.75016766 0.01617964 0.66104969 
-3.2300199 -12.536925 -7.6534205 0.00037513475 -0.00043473666 -0.99999984 
2.8647454 7.3028165 25.320617 -0.6166711 0.48850461 0.61731678 
-37.496794 -11.021673 -3.6227979 -0.999998 0.0019803646 0.00028805965 
-34.098106 -8.8979853 1.6522392 -0.082436723 0.033233386 0.99604203 
-3.9238619 2.3297702 20.994695 -0.69894106 0.15438575 0.69831686 
37.517935 -14.016486 -17.330573 0.98573116 -0.062433378 -0.1563207 
10.474764 -12.510398 26.000343 -0.025552724 -0.79151518 0.61061508 
3.0356172 -23.448288 -4.3848723 0.0033607796 -0.92673443 -0.37570202 
0.16995996 -14.81056 7.0827442 -0.14166461 -0.93907157 0.31317043 
-37.487726 -9.3584921 -5.8609879 -0.96108709 -0.070807403 -0.26701671 
28.096134 4.3780851 -13.571277 -0.99987137 0.010272938 -0.012316747 
-15.789649 1.4235734 9.2412022 -0.70641675 0.091144645 0.70190315 
37.488932 15.032385 -16.363828 0.97238675 -0.097258666 -0.21214324 
-5.9625594 15.281414 -7.6559575 0.00029726004 0.00032650115 -0.9999999 
-7.4778395 -2.5759001 17.357871 -0.69765024 -0.17173527 0.69555096 
36.755233 17.197276 -25.833957 0.73350765 -0.5268141 0.42945714 
32.040204 23.289779 -24.489826 -0.14001836 0.95018642 -0.27846118 
-9.5090958 -18.72615 1.6501021 -0.0027638642 -0.21196524 0.9772733 
11.397062 -14.934324 15.680848 -0.061862395 -0.99569785 0.068984291 
-9.1707551 18.637113 1.6456814 -0.042642803 0.25013552 0.96727132 
-37.494896 0.93731101 -5.6536112 -0.97308951 0.067471197 -0.22032806 
28.126779 11.438955 -18.757282 -0.61567822 0.56532954 -0.54894703 
31.680531 -23.434923 -6.1569562 0.048632802 -0.99234783 -0.11349289 
7.5963722 -11.05275 25.806688 -0.47527333 -0.73941668 0.47684194 
-32.028436 2.5821989 -7.649939 -0.072170611 0.057345655 -0.99574238 
-37.09022 -16.695761 -0.51364611 -0.94364146 -0.29526054 0.14953929 
-29.990305 -9.6941209 -7.6451993 -0.00096032946 0.0010322329 -0.99999901 
32.794247 18.214981 1.6535006 0.17074452 0.4957173 0.8515343 
25.140168 -1.957091 14.049194 0.716375 0.0099552236 0.69764444 
-37.472311 14.641767 -3.8102582 -0.99368559 0.11208523 -0.0050838834 
-17.878943 10.093989 1.8542027 -0.32868089 0.33414269 0.88335584 
-1.0040467 12.950708 13.665073 -0.35553508 0.86507786 0.35388573 
-35.059456 -2.8308238 1.6527869 -0.2901479 -0.019116506 0.95679086 
-22.245531 -3.0214537 2.4383512 -0.5067963 -0.1578391 0.84749297 
-36.997294 16.937611 -5.4656867 -0.8525175 0.36041407 -0.37857049 
8.2772644 -19.083148 1.6494389 0.034121638 -0.48110648 0.87599787 
37.489736 -1.1835039 -23.147961 0.99999995 -0.00015370339 0.00028651683 
8.421645 20.42626 1.6519672 -0.16548894 0.59161034 0.78905679 
11.475879 1.3627889 -7.6521364 -0.00027756393 -0.00021823501 -0.99999994 
9.2983858 -12.386156 25.138099 -0.34998027 -0.83767136 0.41930956 
1.4499483 23.483484 1.3357626 -0.03224212 0.76389202 0.64453815 
-35.72078 -19.471256 -5.967942 -0.79755996 -0.52915214 -0.28964829 
-2.8970964 23.451961 0.42963708 -0.10228167 0.85649167 0.50592537 
-14.282617 -23.450429 -5.1554116 0.042814635 -0.86609158 -0.49804847 
-19.647286 -8.0167284 2.1557749 -0.39002001 -0.35308398 0.85042113 
-16.105973 23.427158 -7.4847913 -0.028176728 0.85589533 -0.51638092 
-6.2195178 -2.1608034 18.72308 -0.7007267 -0.14384719 0.69877756 
2.7487457 -0.052339095 27.883137 -0.70536421 -0.0068837966 0.70881165 
-24.629431 11.029351 1.5934572 -0.14278109 0.2398331 0.96025707 
37.484233 -2.1489714 -11.843392 0.99999999 -0.00012491043 -6.5646364e-05 
-37.488097 -6.3203687 -7.4084696 -0.640973 -0.054117911 -0.76565323 
25.643433 4.3184337 5.5365463 0.29281982 0.3274297 0.89835758 
-3.6872615 -14.440833 -7.6542413 0.00065737639 -0.00036681542 -0.99999972 
-3.1111008 5.9855757 20.285775 -0.64546975 0.40570654 0.64712518 
20.582923 9.1239406 18.600538 0.71466778 0.0097575772 0.69939599 
-37.497127 -12.042024 -5.9516967 0.8693127 0.082287 0.48736462 
9.2807178 22.145817 1.6456518 0.02048467 0.45299802 0.89127615 
6.8954199 9.841343 26.802507 -0.50915969 0.6512377 0.56271295 
1.4555403 -5.5638036 -7.6592041 0.00011767812 -6.0547964e-05 -0.99999999 
35.986995 -12.82838 -26.991176 0.97304841 -0.22865585 -0.029887961 
31.110744 -8.8276647 -32.042218 0.022305509 0.089607304 -0.99572737 
-32.364447 -12.08928 1.591677 0.2597103 -0.15004788 0.95395817 
37.484404 -15.546598 -13.130387 0.99981573 0.0047013553 -0.018612095 
37.489663 7.1159934 -19.098735 0.96108639 0.27262753 -0.044577832 
-1.4382672 9.8102159 18.555075 -0.53584293 0.65336397 0.53477834 
15.743699 23.446694 0.15516705 -0.061079795 -0.80108475 -0.5954263 
5.5037997 -17.824598 -7.657871 0.066627873 -0.10069659 -0.9926837 
37.493515 7.4743768 -26.784651 0.99714245 -0.019990132 -0.072851354 
7.1512225 9.4797986 27.458482 -0.55663318 0.58502761 0.58983236 
34.115952 21.459611 1.6502618 0.2482774 0.56774746 0.78487015 
5.7115262 4.658919 29.809103 -0.38790416 0.50853822 0.76871272 
-37.16506 16.337648 -1.1378336 -0.98028798 0.13760941 0.14177141 
10.674796 14.704465 18.635322 -0.14627309 0.95750262 0.2485818 
-17.624521 17.373349 1.653389 0.00044718719 -0.001005742 0.99999939 
24.500924 15.4458 1.6630371 -0.035561234 0.49044362 0.87074707 
-35.415459 -18.273721 1.6476981 -0.59375635 -0.34986848 0.72460019 
7.3523 -4.9377639 31.293401 -0.19043387 -0.26882422 0.94417609 
37.480489 10.954631 -12.338782 0.99695656 0.03283705 -0.070706069 
-34.502377 -20.857276 -5.0370048 -0.68201174 -0.7296851 -0.049189839 
-31.733099 -0.83021605 -7.6611983 0.0032873905 0.00081697684 -0.99999426 
-21.602983 -4.1392608 2.7061839 -0.49275202 -0.17380208 0.85263608 
-37.025413 16.993939 1.1582311 -0.78261766 -0.0016386765 0.62250054 
28.162066 16.473485 -31.464255 -0.91008065 0.13466418 -0.3919423 
-11.355017 -21.98419 -7.656511 -0.00098550385 0.52695531 0.84989242 
-3.4179848 23.448245 -2.8766911 -0.12394636 0.98966993 0.072046758 
37.480082 -7.5113319 -27.181177 0.97910826 -0.17712211 -0.099873736 
-21.295556 -14.92651 1.6481301 -0.22090599 0.033111257 0.97473288 
-31.876033 20.863112 1.6502178 -0.14496362 0.34923516 0.92575394 
-34.569927 -18.064558 1.6469908 -0.33826718 -0.20195037 0.91912533 
-20.456221 17.43669 -7.6511259 -0.098237043 -0.059802755 -0.99336454 
37.029566 -18.452607 -23.487614 0.88522588 0.39658416 0.24309701 
-37.502571 -3.089392 -1.0563541 -0.98219604 -0.0052591274 0.1877852 
28.083527 -13.393587 -31.108669 -0.76253277 -0.094984146 -0.63993889 
28.084898 -6.7924755 -12.83591 -0.99082288 0.0048349363 -0.13508016 
37.171076 17.753128 -25.248199 0.76702115 -0.46713987 0.43983963 
37.486406 9.0038557 -10.899654 0.99999999 0.00012235122 4.0842307e-05 
28.079756 18.006862 -26.619523 -0.89610274 -0.3113503 0.316324 
37.002596 19.810007 1.6394417 0.65476536 0.27714945 0.70318597 
-25.245234 3.5123975 1.656291 -0.092091477 0.11136476 0.98950344 
37.487562 -15.549659 -13.123328 0.99981839 0.0046674984 -0.018477002 
-37.513978 11.859229 1.0193593 -0.71461768 0.034931637 0.6986425 
8.5235473 13.037126 22.933677 -0.34151303 0.86605578 0.36512496 
35.606297 4.4108652 3.5796145 0.8238517 0.022700099 0.56635067 
7.6050621 2.5230063 31.638232 0.21535088 0.10384136 0.97099998 
-18.778649 11.697985 -7.6555467 0.0010526296 -0.0060513743 -0.99998114 
34.116807 9.45964 5.0792716 0.61647749 0.10322068 0.78057734 
1.8755459 1.7939251 10.831068 0.79656908 0.2740313 0.53887341 
22.482967 15.04543 12.926762 0.50420957 0.85822142 0.096066094 
-10.21234 -17.959942 1.6447779 -0.0099124889 -0.2535119 0.96728148 
23.200352 8.2517919 15.995248 0.70860191 -0.044860915 0.70418097 
-16.082167 -23.434747 -2.3971676 -0.0050010808 -0.9849705 0.17265025 
37.487443 -6.6969986 -24.906781 0.91946233 -0.1439742 0.36586945 
28.100882 13.529783 -15.670708 -0.8512479 0.260105 -0.45576573 
-37.48412 1.4593122 -3.2167781 -0.99999997 3.3564483e-05 0.00025298045 
10.014013 -16.914527 -7.6476702 -0.042358278 -0.13329183 -0.99017123 
3.8347105 -6.4782734 26.893486 -0.63685815 -0.43317731 0.63778453 
35.96705 16.989659 -31.565617 0.52841993 0.27205746 -0.80421211 
32.466972 17.79271 -31.281808 -0.1735699 0.85511062 -0.4885277 
6.8890209 19.915292 -7.650008 -0.0012133196 0.0020252552 -0.99999721 
-3.2854414 4.4039368 20.948512 -0.674781 0.29791481 0.67521654 
-37.491051 -12.165667 -1.0122743 -0.99973573 -0.014601426 0.017755789 
6.7829108 9.2529013 27.367574 -0.5040637 0.58665129 0.63384544 
23.21466 -16.367678 -7.6488518 -0.24892047 0.022452949 -0.96826363 
-21.593216 6.3782873 1.7667384 -0.27389135 0.2092268 0.93872662 
-17.562432 0.73273513 -7.6493336 -0.00052337516 4.5873609e-05 -0.99999986 
35.991602 -12.827995 -26.988255 0.97307784 -0.22853287 -0.02987047 
33.720551 23.4442 -3.8179509 0.28228692 0.95287064 0.11113791 
28.078306 6.7811464 -18.342174 -0.9943514 0.039221647 -0.098625286 
14.223127 -23.441824 -0.82482262 -0.10125507 -0.88564812 0.45318299 
5.0224024 -8.6505762 26.28459 -0.57476747 -0.57643718 0.58082918 
7.9436814 -21.223063 1.644318 0.031626721 -0.36283744 0.9313156 
28.111873 8.8819059 -8.6471047 -0.89999572 0.015163333 -0.4356349 
-15.351421 18.5355 -7.661268 0.0030486206 0.10034648 -0.99494788 
36.136588 -4.1367501 3.0610249 -0.8164441 0.014281134 -0.57724785 
9.5272771 -5.072922 29.663745 0.52333951 -0.03616977 0.85135628 
28.096807 -8.0535192 -31.839831 -0.72275561 0.0022871268 -0.69109992 
-18.264178 10.589722 1.6592316 -0.34915084 0.34320902 0.87195256 
-37.042123 -0.023966235 -7.7152743 -0.77184016 0.057781731 -0.63318563 
-35.957998 19.153705 -5.6664785 -0.81054758 0.48727687 -0.32492133 
3.752411 -14.96733 4.7812819 -0.029715565 -0.90718628 0.4196785 
-12.522805 19.554686 -7.6583352 -0.0023272359 0.010947724 -0.99993736 
37.490516 7.2405757 -21.697015 0.9531733 0.28963677 0.087012691 
32.297065 23.441597 -1.4060028 0.068821117 0.98316318 0.16927437 
8.8858572 6.9301813 30.333109 0.42040378 0.20457936 0.88397282 
-20.649445 14.710916 1.6501025 -0.16816464 -0.042617988 0.98483723 
-22.993719 -9.0276578 -7.6551864 -0.079058128 -0.059583245 -0.99508776 
5.3779677 -13.242119 19.246922 -0.32859741 -0.88508312 0.32962344 
37.490362 -18.079362 -8.2473122 0.99678476 -0.080125745 1.4446126e-05 
28.100777 23.060331 -14.545707 -0.60841626 0.79344439 -0.016602605 
18.72227 15.045712 18.582268 0.19499054 0.95392327 0.228055 
-5.3698575 3.8445906 19.070502 -0.6836074 0.25711914 0.68305978 
-16.539657 -7.2918933 5.9125197 -0.61837438 -0.48925232 0.6150165 
7.6490685 17.886245 -7.6517085 0.00034768829 0.00085536483 -0.99999957 
37.488275 20.653668 -26.199458 0.96345333 0.22312474 -0.148233 
6.2756332 11.083862 24.47966 -0.47557068 0.73810024 0.47858182 
31.393248 -20.186104 1.6504987 0.12902561 -0.52803089 0.83936629 
-21.032642 -2.924108 3.7077046 -0.64824576 -0.17538265 0.74095773 
29.663052 10.636851 -19.795026 -0.45037128 0.63896063 -0.62361448 
-33.06715 -19.016012 1.6528441 -0.10390569 -0.14673434 0.98370353 
17.393686 15.610272 1.6376948 0.12082639 0.72943305 0.67329667 
-32.635441 15.86152 1.6570539 0.092784938 -0.060024809 0.99387523 
-35.389826 10.069957 1.6492494 -0.30339924 -0.048137047 0.95164685 
12.60156 5.3289053 26.589429 -0.85416132 0.17421049 -0.4899583 
25.752313 -11.46811 5.4439725 0.018298007 -0.14093704 0.98984945 
-37.497429 10.897118 -2.5320553 -0.99999797 -0.00052825261 -0.0019466961 
37.481624 3.6803972 -5.654126 0.99999999 -9.645134e-05 3.1522993e-05 
-34.532589 20.895067 -4.2861072 -0.6728222 0.7340826 -0.091831509 
23.74477 17.895714 1.6464088 -0.014924926 0.41057429 0.911705 
28.08686 21.240502 -20.888007 -0.96952157 0.22860269 -0.08814046 
-37.349494 -13.555364 1.5996122 -0.54484104 0.022058627 0.83824916 
-37.483247 -9.4565201 -1.6514987 -0.99998918 0.00031444542 0.0046411298 
-20.589315 -23.471371 0.94816207 -0.019876742 -0.89976342 0.43592511 
37.128954 17.665201 1.643373 0.75190762 0.14759713 0.64253406 
-9.0243411 12.617384 6.283741 -0.40290828 0.80299164 0.43916893 
19.559681 6.9261365 19.539122 0.56429789 -0.19709968 0.80169795 
-32.627441 15.873614 1.6671711 0.094077386 -0.05974855 0.99377037 
10.9824 -19.751233 1.6522661 -0.034550285 -0.16072027 0.98639509 
-22.61949 10.506601 -7.6546435 -0.17368738 0.23163588 -0.95717162 
-37.240386 5.5560168 1.6256714 -0.54148051 -0.031402876 0.84012661 
-10.948267 -3.4882166 13.575251 -0.68837255 -0.23111379 0.68755338 
28.095761 19.103905 -9.4248713 -0.80728825 0.27510747 -0.52211259 
18.028334 19.860206 1.6441257 0.12997272 0.42950658 0.89366168 
-4.9660203 -8.5854967 16.373538 -0.58002197 -0.57161717 0.58036913 
-36.531765 18.209835 -3.2762248 -0.89779476 0.44041283 -0.0010544344 
-36.912972 17.273639 0.88091734 0.75355493 0.049432597 -0.65552375 
31.795008 11.305624 -32.054196 -0.22934597 0.025654131 -0.97300683 
-27.58879 -6.2953285 1.6559516 0.0014494618 -0.12951448 0.99157647 
-15.782053 4.7439002 8.3153602 -0.67045281 0.31635956 0.67112567 
32.54258 -14.949214 4.1471483 -0.34876845 0.46226908 -0.81527165 
26.769813 7.8830244 12.206728 0.94491822 0.079616941 0.31747551 
-0.68824878 -18.877353 1.65281 -0.045284775 -0.40838871 0.91168413 
28.090437 23.358107 1.5669731 0.031303384 0.73577686 0.67650019 
20.802853 -7.4008142 18.393562 0.53660529 0.32573017 0.77843087 
-35.704443 -7.7327322 1.6462304 -0.32988666 0.069373775 0.94146804 
-37.489442 3.6420332 -6.65022 -0.78766584 -0.027518072 -0.61548784 
-4.8618351 -4.5280765 19.297817 -0.67395579 -0.3048721 0.67293135 
35.255507 11.610108 -32.043021 0.351682 0.009474438 -0.93607158 
-34.623689 11.72132 -7.6491107 -0.16358622 0.09818341 -0.98163107 
-17.384414 4.27825 6.9189692 -0.67890234 0.28294679 0.67751954 
-10.727535 19.755174 -7.6516941 0.0059178082 0.085199793 -0.99634631 
-37.497301 4.1491019 -5.7325182 -0.963954 -0.054196089 -0.26049081 
34.012071 17.492333 1.649933 0.28179677 0.41456227 0.86529111 
-31.93284 0.63379174 1.6477929 -0.024669139 -0.0091576779 0.99965373 
36.356232 1.285281 2.8543789 0.874546 0.00136311 0.48494065 
12.408086 11.765835 26.770554 0.59065168 0.30230872 0.74815775 
0.34986446 20.581194 1.6502578 -0.056539863 0.18726397 0.98068112 
-37.259062 10.187863 1.6125409 -0.4719617 -0.02537329 0.88125385 
-1.801704 5.5289602 21.84175 -0.65035159 0.37862505 0.65854831 
-37.507086 -13.553133 -1.201681 -0.99699976 -0.067836025 0.037279389 
-24.396873 16.551642 -1.2858631 0.77513269 0.50411855 -0.38083303 
4.6187974 20.361936 -7.6580496 -0.0010982448 0.0037184803 -0.99999248 
25.393848 7.0229884 -7.6472807 -0.18399732 0.014443117 -0.98282063 
37.53581 23.217435 -16.282996 0.6147247 0.78871906 0.0059829404 
-3.2767399 13.791579 8.9496105 -0.27829353 0.90509473 0.32149064 
35.854927 -1.650852 -32.048317 -0.66891622 0.056727091 0.74117011 
17.430443 -14.94399 6.3921628 0.0291438 -0.99923233 0.02618009 
-36.771806 -17.538475 -7.4025111 -0.68014596 -0.24788486 -0.68989461 
7.1263406 16.591933 -7.6521218 0.0003987175 0.00034897752 -0.99999986 
15.824318 15.048093 10.246025 0.14546366 0.97918045 0.14158377 
-6.4384481 -14.63116 1.9996776 -0.11900938 -0.49079501 0.86310893 
14.099419 -14.939733 6.5183444 0.0036258464 -0.96388601 0.26629048 
16.515153 -23.446609 -2.6576605 0.00031997723 -0.99812045 0.061281881 
-1.7053845 -0.65047252 23.408547 -0.7056896 -0.043276239 0.70719824 
-23.660222 14.021469 -4.1271074 -0.96643786 0.02774416 -0.25539796 
37.52233 22.110823 -26.257008 0.61159077 0.70075922 -0.36727814 
28.096441 21.290246 -19.520889 -0.91538607 0.39528398 -0.076281905 
28.086075 8.989906 -29.803221 -0.91492034 0.058298078 -0.39940218 
-5.4981535 -5.2552043 -7.6527942 -0.00016017409 -6.0028531e-05 -0.99999999 
-3.1063675 15.987895 -7.6457863 0.00021522494 0.00030587671 -0.99999993 
16.037662 -15.894646 -7.64821 0.0025272527 -0.078412752 -0.99691778 
-2.6404958 11.135472 15.504365 -0.47164114 0.74431973 0.47280311 
32.529565 12.536278 6.6630788 0.45886872 0.34563428 0.81852089 
28.086248 10.529213 -10.860981 -0.91327291 -0.014604837 -0.40708635 
17.880266 -6.7936931 18.135918 0.36661555 0.80287809 0.47008491 
-2.175999 3.7435219 22.34034 -0.67977133 0.25213524 0.68872255 
-37.492787 -8.6570987 -3.2092565 -0.99999964 0.00054142469 0.00064797002 
-37.480231 -14.461394 -1.6651715 -0.99315475 -0.11148721 0.034846126 
37.48165 11.609585 -11.712215 0.99999999 0.00011499463 8.9342959e-05 
35.655231 -23.446747 -1.162751 0.37293345 -0.86100007 0.34583164 
-31.304869 22.866261 -2.2012413 -0.37278401 0.88155984 0.28962791 
-37.51604 -3.5926367 -6.9544561 -0.74067888 -0.026560794 -0.67133399 
-5.4264608 -16.453285 -7.6471981 -0.059394474 -0.078435144 -0.99514834 
-0.8512022 -14.951924 4.0720687 -0.14695604 -0.7768155 0.61234108 
37.48689 0.90094864 -20.729933 0.99999994 -0.00030309044 -0.00017411697 
-37.495434 -3.0774284 -5.6337022 -0.91376678 0.025956442 -0.40540909 
-37.493137 -1.7446038 0.31906108 -0.87564367 -0.026436371 0.48223364 
-37.487371 7.7741863 -2.1330716 -0.99999977 -0.00064594753 -0.00019029916 
-16.099386 -23.449896 -5.4799405 0.044089648 -0.83374645 -0.55038437 
5.1184997 -17.336143 1.6419975 0.030008318 -0.47317142 0.88045915 
-21.178134 4.0647316 3.178296 -0.57829869 0.23867486 0.78013135 
-1.8810195 -2.7306564 22.952451 -0.69511778 -0.17892662 0.69627332 
-16.319532 4.5443525 7.8790142 -0.6736671 0.30288507 0.67411665 
6.6836354 0.43256106 31.789806 0.074816127 0.0079234524 -0.99716587 
-25.672777 20.737626 -7.6509118 0.059988827 0.29941206 -0.95223619 
28.088741 20.612653 -11.160311 -0.83985655 0.42457731 -0.33819387 
-1.3419302 4.526883 22.816232 -0.66779525 0.31215624 0.67572774 
3.2480014 -13.569741 16.170577 -0.29537124 -0.9081121 0.29679663 
25.066274 7.1409852 6.1212775 0.83514363 0.26134562 -0.48397684 
0.73873138 15.653488 -7.6550427 -0.00070159885 -0.00019283913 -0.99999974 
-16.361849 0.61650548 8.7389173 -0.70864429 0.039535756 0.70445737 
9.8791054 -23.448953 -6.6921566 0.057528567 0.68836511 0.72307949 
37.528245 23.040706 -23.666004 0.42083665 0.89265424 -0.16144636 
-16.039701 -13.586091 1.648372 -0.15482819 -0.22408517 0.96219232 
-4.9963727 -23.460683 0.73362123 -0.0017967339 -0.73953797 0.67311244 
37.513566 11.298479 -26.485254 0.92190146 0.24527473 0.29989667 
37.489064 -19.267618 -25.397806 -0.27852946 0.36998421 0.88630301 
37.488345 -10.659529 -8.3260319 0.99999946 0.00050072447 0.00091458058 
37.483204 -22.461614 -9.8037127 0.88792623 -0.4599826 0.0017379011 
31.995328 6.0300956 -32.04721 -0.15129631 0.017192235 -0.98833894 
-11.034279 13.192971 2.9701444 -0.28183915 0.6024761 0.74671899 
37.532504 5.8485054 -31.329348 0.84249919 -0.019334736 -0.53835052 
-6.6430483 -14.160057 -7.6530653 0.00046285554 -0.00019628623 -0.99999987 
1.5636515 0.27537471 26.692732 -0.7052617 0.015993011 0.70876664 
-12.700377 22.363288 1.657572 0.0035026361 0.71705908 0.69700359 
37.494601 -11.972347 -29.823844 0.95903749 -0.13025515 -0.25155655 
-36.985992 17.027655 -4.0280885 -0.94734891 0.32015147 -0.0057515298 
15.511577 20.025977 -7.6493931 0.018856397 0.43437203 -0.90053616 
-25.998498 -7.7563701 1.6448973 -0.071046903 -0.19711265 0.97780312 
11.883858 -2.5332858 27.294751 0.78490863 0.056914862 0.61699201 
-32.047018 19.005406 -7.6595153 0.074376295 -0.061984542 0.99530201 
37.537564 -16.925419 1.2254527 0.86941371 -0.13754032 0.47455501 
28.091304 17.931162 -12.051056 -0.99250563 -0.014267477 -0.12136317 
-37.494359 9.722903 -0.88220611 -0.98956053 0.0032689938 0.14408075 
-9.0693251 -5.4535777 14.617692 -0.65998288 -0.36086677 0.65893685 
10.534005 22.308346 1.6580173 -0.047295785 0.56342747 0.82481064 
-20.467026 6.3391517 -7.6577288 0.00043957689 0.00048425863 -0.99999979 
30.692357 -22.019416 1.65228 -0.12526821 -0.75671561 0.64163024 
14.543276 -6.2105262 23.792571 0.76305155 0.17499889 0.62219588 
-25.245639 -23.433302 -1.9708694 -0.090491438 -0.96239819 0.25612695 
-37.488217 1.3484636 -3.5855763 -0.99999976 -5.2069119e-05 0.0006968356 
12.814922 -9.3413323 -7.6476066 9.0296232e-05 -0.00032766571 -0.99999994 
-27.847358 19.690592 -7.6663818 -0.048355066 0.20085873 -0.97842606 
-0.93497179 -4.7798938 23.10827 -0.66990933 -0.32137161 0.66928453 
-4.3947165 -12.90434 10.321074 -0.35999978 -0.86184381 0.35724697 
-37.497504 -5.4484583 0.66290654 -0.93318255 0.024599777 0.35855988 
25.99476 22.351768 1.6588787 -0.041439952 0.65789711 0.75196683 
35.422903 -22.727989 -26.172924 0.2710245 -0.82080923 -0.50281004 
-21.33862 15.780779 1.6465037 -0.27406998 -0.017947969 0.96154226 
-37.488712 2.6156843 -1.186397 -0.99648474 0.027197528 0.07923675 
-23.067572 15.879071 1.6629755 -0.58754196 -0.06093772 0.80689593 
37.489638 -8.4014388 -9.9497948 0.99999962 0.00050669228 0.00070729068 
4.7251406 -3.401555 7.9597193 0.92234927 0.086805747 -0.37647921 
-18.118447 -17.407114 1.6542027 -0.00087471636 -0.00083429332 0.99999927 
-16.852103 5.8794021 6.6283565 -0.6505268 0.39569132 0.64826173 
-0.38175325 -0.77167034 24.744735 -0.70598952 -0.045021148 0.70678985 
32.54471 -14.944758 4.1475382 -0.34947502 0.46191821 -0.81516794 
28.062793 22.588949 -25.004118 -0.44781437 0.81057516 -0.37739925 
-22.236062 3.2422121 2.3812515 -0.49067899 0.17071842 0.85445266 
37.486036 9.9356981 -28.170796 0.98286521 0.1766259 0.052718834 
32.806837 23.44251 -19.577106 -0.069981125 0.99504149 -0.070675875 
15.612662 -11.145946 23.579593 0.63678895 -0.31305556 0.70462476 
28.09054 -1.0535326 -15.6311 -0.99999985 0.00053870949 9.4112164e-05 
-37.48763 -11.805556 -5.7027844 0.8631657 0.17918441 0.47205711 
-5.5228433 -2.130017 -7.653494 -0.00028097229 -4.8675418e-05 -0.99999996 
-24.386407 16.544427 -1.2865852 0.77622034 0.50198447 -0.38143622 
37.480646 -5.6259409 -14.253481 0.99999989 0.00047783381 -4.1681559e-06 
-37.501835 14.087276 -0.3657729 -0.98001439 0.11344554 0.1634072 
28.086317 2.2869124 -26.825325 -0.99999973 -0.00022922163 0.00069236523 
30.194879 23.445202 -1.6989485 0.005859433 0.93431832 0.35639155 
-18.914888 -23.459597 0.83987313 0.00042348334 -0.92500348 0.3799584 
-2.9041845 -13.718716 9.625248 -0.28461626 -0.9162182 0.28202445 
28.085779 -4.1735124 -19.351377 -0.99999985 0.00030000861 0.00046462577 
-11.239859 2.7091224 13.549564 -0.69663098 0.1790877 0.69471783 
-1.5584673 -21.153799 -7.6464246 0.010691833 -0.56440102 -0.82543151 
-21.329025 11.529786 -7.6482736 -0.18270719 0.028201988 -0.9827628 
37.482741 11.540285 -30.57976 0.88103327 0.065186954 -0.4685414 
28.099249 11.865435 -16.233786 -0.93772772 0.094863044 -0.33416722 
28.086762 1.4626636 -25.376813 -0.99999976 -0.00047569317 0.00049822276 
4.7311303 15.075427 -7.651763 0.00015211598 0.00059763682 -0.99999981 
29.456269 17.866598 -25.017402 -0.45885533 -0.61012358 0.64591099 
19.596953 -16.964096 1.6477181 0.042762929 -0.36821716 0.92875586 
-5.5001612 -7.9311997 16.44385 -0.60043375 -0.52857752 0.60007093 
-37.494849 12.493014 0.48220542 -0.86938618 0.040411334 0.49247802 
28.122861 6.8939966 -8.029689 -0.81892808 0.011251242 -0.57378585 
28.104426 21.330645 -21.311394 -0.99301613 0.11303936 -0.033779574 
-19.268284 -2.677105 5.5297952 -0.69755569 -0.17519902 0.69478153 
28.228816 -23.402465 -10.498191 -0.55968953 -0.81828595 -0.13097994 
28.087476 -17.855686 -18.171308 -0.92319488 0.23523779 -0.30393156 
4.1555537 11.171652 22.225066 -0.46966352 0.74624476 0.47173609 
33.210756 -23.445145 -13.910618 0.0790853 -0.99683236 0.0084123033 
-16.379813 20.561109 1.6572579 -0.050407819 0.26272445 0.96355328 
-18.988943 3.7323554 -7.6523944 -0.00031842675 -0.00017641648 -0.99999993 
28.08742 -8.2063256 -25.66844 -0.93908041 -0.28543129 0.19146007 
-17.618642 -2.278926 -7.653888 0.00037645908 0.00055535935 -0.99999977 
34.670185 15.010823 2.4592067 0.69074738 0.18000869 0.70033201 
16.926734 15.055377 15.140631 0.230561 0.95920136 0.16362877 
-20.244158 -4.5582778 -7.6501606 -0.00053547019 0.00024865969 -0.99999983 
-34.678331 -16.790725 -7.6504875 -0.081470066 -0.12921615 -0.98826404 
20.974428 7.5456065 -7.6423307 -0.071126004 -0.018023519 -0.99730449 
37.489083 -5.3823029 -6.5854532 0.99999827 -0.0015194113 -0.0010718388 
-28.952132 9.1145708 -7.6552023 0.029214221 0.31394877 -0.94899036 
-34.644155 20.80767 -3.2340216 -0.69470293 0.71929598 0.0010594631 
15.020562 21.767547 -7.6666194 0.020979839 -0.64403 0.7647125 
-14.918741 -10.886144 3.5816961 -0.39584274 -0.56774208 0.72178768 
37.528776 -3.8675525 -31.421918 0.76277899 0.028923248 -0.64601212 
-23.677101 -14.584134 -5.7622268 -0.74992957 -0.025385536 -0.66103042 
-15.441818 7.6692071 6.7065765 -0.60684823 0.51525559 0.60518337 
-15.068242 17.802093 1.6425878 -0.016038622 0.024579978 0.9995692 
37.479547 16.404259 -28.814346 0.99838507 -0.038342745 0.04191751 
-37.494657 1.4503004 -3.208017 -0.99999997 2.7485807e-05 0.00024809565 
-1.9053867 -2.3616275 23.001179 -0.69762342 -0.15575669 0.69932926 
-31.593832 9.8337266 1.6560542 0.28083537 0.59697083 0.75150338 
-36.914625 17.278837 0.88808241 0.75208296 0.049978179 -0.65717076 
5.5336019 4.333502 29.769674 -0.52504929 0.34066945 0.77991511 
-10.442573 21.803074 1.6483608 0.045270803 0.47577455 0.87840146 
5.7354193 12.828333 -7.6558067 -5.0368265e-05 -0.00011316743 -0.99999999 
-2.8940499 -10.022279 16.817217 -0.5251155 -0.66877461 0.52630241 
23.125584 13.20397 -7.6525048 -0.18553045 -0.018129487 -0.98247126 
3.8425914 14.88732 9.912022 -0.13226894 0.96972329 0.20528436 
-14.696615 18.580193 1.6523739 -0.018127596 0.030838119 0.99936 
-19.205325 8.5556807 2.1278254 -0.34898218 0.3201325 0.88075344 
-36.714232 -17.829355 -4.6135965 -0.91361178 -0.37510625 -0.15687199 
36.763597 -5.52573 -32.06234 0.56800172 -0.016800469 -0.82285587 
-10.910118 6.7171604 11.981641 -0.63311275 0.44408287 0.63400208 
37.494083 -15.993631 0.67558475 0.86580602 -0.118577 0.48612698 
9.0889633 13.088811 23.387315 -0.33585185 0.87214457 0.35576311 
-1.9625669 -4.9548847 21.996248 -0.66573234 -0.33365233 0.66744031 
-23.910445 -11.654699 -7.6747913 -0.13976971 -0.27357406 -0.95164156 
-27.677348 -20.195624 1.6603171 -0.048666466 -0.15961438 0.98597912 
37.484746 18.067537 -8.4909246 0.98781863 0.15527236 0.010239953 
37.486358 15.156188 -10.75685 0.99999999 -9.5717823e-05 -5.7103687e-05 
-17.873595 0.61876692 -7.6538939 -0.00026141134 4.7066182e-05 -0.99999996 
31.07311 -23.438896 -8.4294501 -0.2327521 -0.94553765 -0.2275632 
-30.213757 -4.5336314 -7.6533835 8.6128832e-05 -0.0010925659 -0.9999994 
26.439056 -10.653543 -7.6506443 -0.39174405 0.015792247 -0.91993869 
-20.937278 -7.6872585 -7.655074 0.00087787085 0.0013715722 -0.99999867 
28.11147 -23.145502 -21.0648 -0.54889001 -0.8301668 -0.097687502 
22.373563 -14.945208 7.0809936 0.17678976 -0.98313401 -0.04682848 
28.09146 0.5347429 -25.509974 -0.99999972 -0.00041841865 0.00061898179 
37.487042 0.91906546 -20.723044 0.99999994 -0.00030446347 -0.00017466579 
-22.265111 -5.162992 1.7804326 -0.32825865 -0.1394898 0.93423169 
-37.266848 -15.301242 1.5971204 -0.66378058 -0.030650663 0.74729906 
32.574877 -23.450116 -13.583968 0.037152274 -0.99513186 -0.091281414 
-0.27601458 19.279336 1.6563399 -0.038252734 0.14756417 0.98831247 
-37.361606 12.453975 1.5927214 -0.74878767 0.015845347 0.66262052 
22.035831 -3.8635368 -7.6561666 -0.1795192 -0.077977226 -0.98065917 
0.2043903 5.8666676 23.635779 -0.64958267 0.3936193 0.65046614 
23.135597 2.8924303 16.066812 0.62487918 -0.040760876 0.77965669 
-25.669416 -10.012275 1.6250953 -0.13249955 -0.19124958 0.97255718 
-0.67831501 -10.195236 18.824756 -0.51840356 -0.67851767 0.52045319 
-37.498022 13.786897 -0.081552058 -0.963725 0.066088243 0.25858553 
31.680529 -18.230699 -21.05576 -0.73598483 0.55746018 -0.38414122 
-5.3791401 -2.4459372 19.495261 -0.69932837 -0.16407476 0.69571496 
11.823821 -4.0715775 -7.6540561 0.00016804273 -0.00011337125 -0.99999998 
4.210224 10.746791 22.907909 -0.49088574 0.71778345 0.4937794 
-13.268586 -12.000146 3.3639735 -0.34838726 -0.59159424 0.72707811 
20.137029 -20.316155 -7.6528205 -0.042682075 -0.31968747 -0.94656123 
7.4203995 11.327597 -7.6527185 -2.0074983e-05 -0.00023782625 -0.99999997 
-28.218786 -4.2829908 -7.6455162 -0.00025528688 -0.00060606741 -0.99999978 
34.673879 -9.7544171 4.508393 0.7349341 -0.13969076 0.66359503 
-15.798248 -9.4888306 4.5583153 -0.53074619 -0.53007586 0.66130784 
17.096451 19.580045 1.6504733 0.16739476 0.43114291 0.88661986 
-2.6758028 7.8360946 19.321041 -0.60071444 0.52074162 0.60660557 
26.132145 -7.4302551 5.0554938 0.029727798 -0.027119226 0.99919007 
29.360068 11.428643 -32.044872 -0.58442859 -0.0061444972 -0.81142188 
1.6118012 17.941036 -7.6576444 -0.00053286664 0.0012282946 -0.9999991 
-15.423148 -3.9303758 9.0097359 -0.68198535 -0.26327225 0.68233695 
-0.68214507 -18.880273 1.6421237 -0.045260913 -0.40782422 0.91193797 
-16.995618 10.556792 1.9831469 -0.36954163 0.40654636 0.83555912 
32.998834 7.3572325 6.1944991 0.50652961 0.037523445 0.86140568 
0.4109248 10.847536 19.015286 -0.48619268 0.7248613 0.48804997 
-10.96193 -3.4879375 13.59257 -0.68845267 -0.23066454 0.68762402 
-6.5916828 23.443803 -7.4718239 -0.065122524 0.88943041 -0.45240757 
-37.493683 -8.8914983 -3.5173131 -0.99999911 0.0010791828 0.00077836366 
-10.421508 3.4173237 14.175562 -0.69145875 0.22663447 0.68594578 
15.499334 -8.0041506 23.690488 0.72462353 0.25476766 0.64032349 
29.718455 17.601235 1.6517123 0.038106335 0.43199545 0.90107039 
28.279652 -23.390846 -20.687313 -0.48048719 -0.87436777 -0.067919598 
10.160891 4.9939134 -7.6504298 -0.00014089488 -0.00023991964 -0.99999996 
35.248042 3.5689332 3.9386996 0.80085891 0.016354165 0.59862972 
25.641696 4.3130145 5.5386688 0.2935945 0.327782 0.89797618 
28.219169 11.432188 -31.985687 -0.51559991 -0.0024922782 -0.85682584 
11.092596 -12.170527 27.450443 0.14337076 -0.63950557 0.75529958 
7.418278 -7.9187278 -7.6521443 3.4656732e-05 -0.00030818856 -0.99999995 
16.756305 -11.182753 22.438956 0.69606774 -0.26956522 0.66545045 
1.0520446 -0.1505848 15.273595 0.093327979 -0.94433289 0.31547626 
-0.68338872 6.4032347 22.411479 -0.63567253 0.43047753 0.64078821 
-15.252477 -18.188846 1.6466987 0.013972891 -0.061613949 0.99800224 
3.9187932 17.599689 1.6465521 -0.22416255 0.39437034 0.891192 
31.427822 -21.845611 -27.850468 -0.36669177 -0.75586285 -0.5424099 
-34.632798 20.799757 -3.252759 -0.69452702 0.7194659 0.0010218056 
-26.610375 -23.45393 -2.6796719 -0.15370017 -0.98103787 0.11807186 
24.006123 -14.939101 13.147602 -0.62549489 0.64194312 -0.44346947 
20.083107 15.046174 7.7518202 0.28862037 0.92611731 0.24290948 
28.069325 6.0327687 -31.564231 -0.65588953 0.0089262856 -0.75480411 
-23.628681 -14.186155 -0.5871796 -0.7927539 0.0013104562 0.60954043 
28.092295 17.130734 -27.384245 -0.89677663 -0.26429119 0.35488286 
28.092771 -16.751378 -13.593283 -0.99844344 0.013315097 -0.054160849 
37.481791 -11.880413 -17.271275 0.88666847 -0.22562551 -0.40362378 
37.486636 5.1753964 -12.193779 0.99999999 0.00013308433 6.5786344e-05 
26.455332 -10.652742 -7.6539858 -0.39620475 0.015739432 -0.91802727 
28.085733 -4.7225987 -29.917303 -0.96890576 0.02765153 -0.24588011 
-0.24030633 16.492233 1.6505742 -0.024580481 0.17583669 0.98411242 
-9.6040764 -23.446654 -4.2222433 0.017726476 -0.92919828 -0.36915624 
28.097935 20.390433 -12.111599 -0.93313605 0.3141501 -0.17483371 
-17.451021 23.448322 -3.8711003 -0.046668393 0.97220597 -0.22942887 
27.806595 -20.457987 1.6477193 -0.1651972 -0.57428387 0.80181539 
-24.319491 -16.430568 -4.9546193 -0.60866389 0.38697889 -0.69265836 
-37.496509 8.1843158 -0.66109983 -0.97043229 -0.11579168 0.21178633 
25.861711 -23.446641 -3.6637734 -0.14681107 -0.98732806 0.060247874 
-23.369356 -0.30800291 -7.63971 -0.00013086145 0.00070692654 -0.99999974 
31.889272 7.150635 -32.043384 -0.22056695 0.10839419 -0.96933014 
-35.956183 19.147465 -5.6721149 -0.81014954 0.48643637 -0.32716569 
-27.00291 -20.831588 1.6524962 -0.055181507 -0.29688985 0.95331601 
12.519999 -17.794932 1.6408144 -0.13659351 -0.64476886 0.75207401 
-37.494851 8.7419814 -7.3819489 -0.65148659 0.057713721 -0.75646173 
-37.507424 -13.552304 -1.201283 -0.9970023 -0.067798878 0.037279124 
28.093188 -0.055820865 -19.181605 -0.99999999 1.6283923e-05 0.00016942832 
28.386516 4.3756163 -32.036269 -0.83275263 0.033367282 -0.55263884 
11.374281 -1.75092 -7.6574085 2.2618591e-05 1.0545046e-05 -1 
-19.041102 -19.441 1.6484095 0.048884462 -0.095854426 0.99419427 
14.481383 22.75592 -7.6571976 0.019607721 0.4756723 -0.879404 
37.487843 -19.044181 -27.389332 0.65909459 -0.18566124 -0.72878271 
22.711175 -7.1778106 -7.6471373 -0.31249334 -0.044494751 -0.9488773 
31.574287 15.170224 -26.98243 -0.12387274 -0.95689995 0.26267476 
28.093594 -8.1664425 -29.386156 -0.99514752 0.0052991654 -0.098251324 
30.59325 -21.99038 1.6551391 -0.12330988 -0.7521696 0.64732957 
28.094977 -0.33437852 -22.646031 -0.99999998 -0.00012106059 0.00014594095 
28.094448 19.6221 -27.292556 -0.96190348 0.17942632 -0.20627138 
-23.516392 21.971395 -7.660325 0.061108685 0.63403287 -0.77088783 
35.503899 7.724813 -32.050552 0.38673286 0.0052735022 -0.92217671 
12.815606 22.763971 1.6659152 -0.0057973076 0.56340461 0.82616078 
-23.608932 14.174136 0.59879837 0.67244314 -0.066810677 -0.73712723 
-33.202312 12.470853 -7.6699364 0.024088147 0.043305986 -0.99877142 
-8.5010769 -3.2039043 -7.6507205 0.00028222141 9.5919366e-05 -0.99999996 
28.088916 21.1571 -17.789597 -0.92414298 0.38203746 -0.0026711063 
-36.349131 -18.545773 -4.4946836 -0.87439487 -0.48482015 -0.019571272 
25.033937 1.7344034 14.160486 0.81033011 0.019179924 0.58565967 
-37.158148 -9.2714032 1.640833 -0.68014856 0.008392223 0.73302627 
7.9655853 -14.965403 11.472018 -0.064508647 -0.99522651 0.073231335 
37.486288 21.033192 -22.977591 0.81443536 0.57035803 -0.10670881 
-28.345064 0.082402853 1.6448657 -0.0035450178 0.0022488218 0.99999119 
1.4412513 2.8342604 26.23551 -0.69515797 0.18709706 0.69408219 
28.080591 -12.370207 -27.766895 -0.79699299 -0.087047706 0.59768292 
8.6921173 12.459795 -7.6616922 -0.00038912565 0.00010354416 -0.99999992 
-33.361542 21.781671 -5.3023268 -0.37275755 0.85031002 -0.37151674 
-8.7199187 2.8122229 16.082977 -0.69523435 0.1877748 0.69382262 
-35.217005 20.144868 -4.6631742 -0.76748999 0.62958892 -0.12073488 
28.08249 -22.624964 -13.56306 -0.66777885 -0.74426672 -0.011766657 
9.3297039 -1.557867 29.861631 0.558803 -0.0040261264 0.82929066 
-14.636497 12.911113 1.6202265 -0.24723659 0.39875293 0.88310258 
17.978105 19.954205 -7.6554858 0.17592604 0.360276 -0.91610656 
-37.261378 -16.057807 -1.3535365 -0.96841529 -0.24245064 0.058219566 
-23.24582 -19.64002 1.6528869 -0.031806159 -0.20120566 0.97903251 
24.720574 13.642307 6.475056 0.55783851 0.6225251 0.5488886 
28.086853 -22.389018 -15.818776 -0.92264837 -0.38480233 0.025439336 
2.0063646 0.41179363 27.121659 -0.70574793 0.02393748 0.70805851 
37.472494 1.9723373 -4.5903216 0.99949738 -0.016197396 0.027251299 
-37.056088 16.822752 0.39635372 -0.83867041 -0.23772954 0.49001695 
21.062199 6.4002862 18.160948 0.60998231 -0.11864763 0.78348218 
25.029575 23.451116 -2.7467673 -0.077157588 0.99397302 0.077873916 
9.296993 -14.095963 20.39481 -0.23650623 -0.94194868 0.23832224 
4.6794344 -14.980207 8.6717058 -0.1158009 -0.97698969 0.17911255 
31.927301 -23.46843 -22.323704 -0.19514149 -0.96937822 -0.14908271 
28.554822 -23.4712 -16.953023 -0.67393493 -0.73846771 0.021843964 
37.478422 20.421951 -11.052248 0.97104884 0.22294248 0.085795105 
-31.63334 21.35012 1.6562827 -0.1350112 0.30064693 0.94413103 
20.55918 12.769066 18.608705 0.69084902 0.45699805 0.56025031 
-21.350875 -7.2341083 -7.6438056 0.0013273581 0.0012128553 -0.99999838 
30.64329 -22.600925 -26.460643 -0.44586496 -0.77970672 -0.4396156 
0.55787417 2.6020727 25.412574 -0.69588013 0.17256758 0.6971164 
16.080219 8.1720238 -7.6578799 0.00052120289 -0.00016305993 -0.99999985 
28.096959 -4.8673115 -15.620552 -0.99999997 0.0002532101 -2.6703876e-05 
28.085293 -1.0631543 -15.655034 -0.99999985 0.0005380745 9.6685348e-05 
-12.529404 19.552614 -7.6544112 -0.0023241018 0.01094374 -0.99993741 
-11.759509 21.86138 1.6554008 0.059242339 0.46550799 0.8830587 
-0.012370733 4.7003344 24.044179 -0.66808779 0.32353133 0.67006432 
37.550326 11.561448 -31.588589 -0.68218599 0.003827413 0.73116867 
37.474818 7.6816414 -12.286734 0.99999991 0.00038291927 0.00019646674 
8.2863206 8.207526 29.993798 -0.046293221 0.3693233 0.92814721 
17.46512 -14.94286 8.0568302 0.079950644 -0.9797842 0.18338707 
-9.0698904 0.68160971 -7.6530249 -0.00041870396 -0.00047223689 -0.9999998 
37.498522 -0.49355711 -12.166384 0.99999999 -0.00014864419 -7.8295214e-05 
-4.0404274 18.848711 -7.6496783 -0.028606673 0.078083969 -0.99653628 
13.85573 16.453027 -7.6572545 -0.00014270008 9.7141112e-07 -0.99999999 
10.537016 -15.25232 1.7817881 -0.025761958 -0.72912121 0.68389954 
37.495635 8.4771097 -30.751998 0.76591368 -0.038101449 -0.64181346 
-37.493774 11.208569 -3.8602921 -0.99999913 0.0013133931 -0.00014565623 
-37.490736 8.1846153 -0.66389142 -0.97051308 -0.11566366 0.21148589 
-2.0116912 5.7044339 21.540173 -0.64725597 0.38964862 0.65515926 
31.049026 15.225034 -26.984975 -0.27968036 -0.79655707 0.5359811 
-2.846444 -1.6480731 22.182001 -0.70057168 -0.11119202 0.7048657 
23.907245 4.7898707 7.3002586 0.7758041 0.49458079 -0.39181352 
37.481048 6.9532369 -2.7119103 0.99307022 0.019043236 0.1159694 
-19.833199 10.599791 -7.6564658 -0.010965741 0.021908064 -0.99969985 
-28.950002 9.1026092 -7.6584303 0.028826104 0.31316756 -0.94926031 
14.894629 13.809514 -7.656457 0.00018701057 0.00030169463 -0.99999994 
-6.7912326 11.804926 10.204543 -0.43294344 0.79233979 0.42983442 
1.5897302 -14.956752 4.6725272 -0.10402982 -0.8680692 0.48542111 
37.48513 14.83549 -0.77184156 0.97304152 -0.0042018226 0.23059172 
-34.980304 -20.3928 -5.983845 -0.74895003 -0.60816325 -0.26308045 
-10.266013 -19.585075 -7.6502354 0.020762937 -0.30533161 -0.9520197 
1.7973655 -13.314536 15.471146 -0.3242081 -0.88863056 0.32438377 
37.498053 -2.124176 -31.018144 0.66404549 -0.033728831 -0.74693102 
28.098005 15.134901 -28.494186 -0.85423053 -0.28989694 0.43156688 
5.4022339 7.5975196 27.602462 -0.57005946 0.49611387 0.65490704 
14.520748 23.451766 -6.7444755 0.060896844 0.67064406 -0.7392754 
-37.49061 -1.3880191 -3.3332498 -0.99999755 0.0015731181 0.0015576349 
11.238281 -23.329162 -7.6013725 -0.035752873 -0.46538292 -0.88438706 
20.815308 7.8297383 18.375262 0.65883195 -0.024740928 0.7518832 
37.491648 9.1651814 -14.916841 0.97737355 0.15740313 -0.14129827 
28.094142 -18.399822 -11.459891 -0.98082725 -0.12746684 -0.14741139 
-15.699578 23.464353 0.94924317 0.012567368 0.91642624 0.40000626 
-1.4473925 13.202384 12.542222 -0.33228771 0.88367626 0.32969856 
14.893095 13.823257 -7.6541892 0.00018534864 0.00030070912 -0.99999994 
37.485117 14.82886 -3.0629321 0.99197958 0.014778806 0.12553124 
28.093753 13.295104 -16.421909 -0.8070387 0.23590888 -0.54132757 
2.45718 1.9963908 27.403709 -0.70016217 0.1324928 0.70158292 
-37.494973 -10.389058 -1.6736797 -0.99999693 0.0024752154 -8.560363e-05 
-8.1129344 -7.5868076 -7.6508745 -0.00012980191 -1.0627927e-05 -0.99999999 
-28.959695 1.3202207 1.6460839 0.00021624076 -0.0016065648 0.99999869 
-9.0889935 14.151157 -7.6499456 0.00040395334 4.2750856e-05 -0.99999992 
15.014301 15.046595 7.6995326 0.07313211 0.9688436 0.23663003 
28.090142 -21.114569 -25.684321 -0.85640068 -0.49116011 -0.15918422 
-11.578869 -23.452303 0.72086511 -0.022022254 -0.84438194 0.53528886 
37.482687 -17.162038 -3.8939937 0.99786083 -0.063950472 0.013568506 
-14.989019 3.3867747 9.6424214 -0.68848325 0.22103014 0.69075067 
-29.339167 3.9422812 -7.6569215 -0.0031130325 0.0046083443 -0.99998454 
-37.493974 6.0393058 0.53990249 -0.82583877 -0.087164613 0.55712893 
11.503125 -13.454825 24.637554 0.046056775 -0.93027305 0.36396542 
10.145995 -13.65174 22.803738 -0.17544988 -0.9341089 0.31089855 
-6.0449686 1.1120044 -7.6529182 -9.94141e-05 0.00011378824 -0.99999999 
37.48874 21.737165 -21.911704 -0.70638701 -0.70126224 0.096169917 
20.283533 5.8241519 18.110788 0.56288109 -0.15907382 0.81108594 
-16.662548 -9.706845 3.3950133 -0.45761886 -0.48910763 0.74253533 
-22.329622 -6.1710853 -7.6476768 0.0016834874 0.0010666318 -0.99999801 
-37.507186 -1.8803992 -7.2894723 -0.87739917 0.0049876684 -0.47973516 
-22.751498 10.314809 -7.6463153 -0.16782589 0.22569315 -0.95963382 
3.2865547 -8.1042038 25.068775 -0.59446387 -0.54039465 0.59547151 
37.491234 9.4020199 -8.3580661 1 4.9411622e-05 -5.0877334e-06 
28.087492 -4.3412209 -9.1043974 -0.72408368 0.010990208 -0.68962456 
37.5095 14.033714 1.0638204 0.91285702 0.054710959 0.40459705 
28.111798 -8.1967495 -31.912973 -0.69984402 0.00035864489 -0.71429562 
34.509672 -1.0969557 4.6835118 0.72742834 0.00023013467 0.68618362 
37.331041 21.359415 1.6070258 0.48622793 0.550579 0.6785611 
28.094598 8.7039056 -10.412962 -0.88245474 0.037635408 -0.46888933 
13.406515 -21.117918 1.661124 -0.019467773 -0.36568636 0.93053452 
-6.4315833 20.50675 -7.6570544 0.0033460183 0.24756284 -0.96886606 
-16.340313 4.580992 7.8251322 -0.67306104 0.30574088 0.67343252 
-8.7329132 8.2597702 12.914362 -0.59221102 0.54844994 0.59032937 
-9.8403719 -18.454659 -7.6537502 0.099969088 -0.20595639 -0.97344139 
4.2564706 -5.4651296 27.930312 -0.65476417 -0.36470095 0.66202499 
-37.494395 4.2273494 -2.2210843 -0.99999935 0.0003683944 -0.0010827792 
33.260085 -23.437386 -7.2092586 0.1710441 -0.98158001 -0.08511528 
1.5904544 -14.960538 4.6750942 -0.1040115 -0.86810753 0.48535649 
35.516294 16.149001 -18.707337 -0.88145513 0.20004607 0.42780652 
30.84845 -14.954 -27.041478 -0.21098901 -0.61302031 0.76137359 
5.7034645 -23.445292 -1.8463039 0.036716317 -0.95758013 0.28581849 
-12.200976 -23.461583 0.8616414 -0.0026031089 -0.85724971 0.51489431 
-18.578344 3.1671485 -7.6539419 -0.00057060588 -0.00014770013 -0.99999983 
36.66401 -1.4046461 -32.063316 -0.75848948 0.045934989 0.65006437 
37.489195 -17.750615 -17.169387 0.90153969 -0.10279744 -0.42030807 
-12.005514 6.132582 11.286071 -0.64349374 0.4061215 0.64883059 
-28.356218 0.088864356 1.6367321 -0.0037101994 0.0019323012 0.99999125 
-8.8217309 1.171576 16.277463 -0.70559723 0.077433255 0.70436968 
37.489471 13.369712 -30.215391 0.93756485 0.16679172 -0.30520922 
35.783136 -10.104639 -24.759534 0.74995827 -0.5573596 0.35624832 
-23.772728 23.435649 -1.926347 -0.10525842 0.97590585 0.19112412 
-37.489582 -3.4337346 -3.0321388 -0.99999988 0.00033661859 0.00034521445 
37.480238 -1.4334917 -15.609368 0.99999998 -0.00013422754 0.00013812151 
-34.038711 21.300276 -6.1847869 -0.50718137 0.68751981 -0.51969565 
-19.992316 -1.0711031 5.0915413 -0.70510876 -0.068910214 0.70574289 
-0.69214238 5.3051284 23.049234 -0.65505544 0.36307253 0.66263165 
36.724207 -4.4731518 2.4666777 0.88847757 -0.0032379059 0.45890863 
30.098248 -19.378886 1.6444562 0.059154066 -0.49326394 0.86786605 
-13.270674 -11.992142 3.3555271 -0.34845602 -0.59130467 0.72728068 
-32.547729 -12.697343 -7.5970775 0.10036158 -0.072761063 -0.99228695 
6.7973454 -16.982558 1.6496069 0.046553682 -0.61587646 0.78646611 
31.178849 8.2462324 -32.05021 -0.31431012 -0.0051230825 -0.94930654 
-16.96738 -1.1382759 8.0979164 -0.70633565 -0.069758061 0.70443152 
7.4771517 19.437576 -7.6531182 -0.00018951658 0.0026300007 -0.99999652 
31.297247 -9.6053902 -23.174245 -0.39156683 -0.89239695 0.22428351 
37.503156 -14.020514 -17.328924 0.98533724 -0.063289117 -0.15844559 
28.09269 -0.72909566 -29.040878 -0.98338045 -0.049534653 -0.17466883 
20.163559 7.4780646 19.034038 0.60253463 -0.12423657 0.78836368 
35.420116 -22.727863 -26.16969 0.27073547 -0.82097696 -0.5026919 
37.491028 -7.3613277 -13.449577 0.99999994 0.0003429281 6.5846869e-05 
-11.331194 4.5727693 -7.65825 -0.00014827478 -0.00038662751 -0.99999991 
-7.9062656 -5.0962334 -7.6508886 0.00025414412 -0.00014591015 -0.99999996 
-35.505454 19.789028 -4.1055623 -0.79042951 0.61252308 -0.0060542437 
28.085945 5.1981411 -20.781792 -0.99970606 0.02377783 -0.0047336727 
-2.1885628 7.5224039 20.074911 -0.60932908 0.50294279 0.61299806 
15.067613 -11.124174 24.124928 0.61541285 -0.32262194 0.71915374 
