ply
format ascii 1.0
element vertex 734
property float x
property float y
property float z
property float nx
property float ny
property float nz
end_header
11.6872820 14.7725606 -7.6403993 -0.0005807 -0.0021624 -0.9999975
13.5132846 15.4058903 -7.6485087 -0.0016681 -0.0011256 -0.9999980
15.3086930 16.0320958 -7.6605688 0.0022179 0.0009044 -0.9999971
17.0705734 16.6366472 -7.6607314 0.0007493 0.0020823 -0.9999976
18.7947514 17.1929731 -7.6195361 0.0006609 0.0016656 -0.9999984
20.5045643 17.8066704 -7.6513487 -0.0025323 -0.0000880 -0.9999968
22.1774376 18.3660913 -7.6344056 -0.0062733 0.0003798 -0.9999803
23.8314905 18.9710501 -7.6783941 -0.0170342 0.0145947 -0.9997484
28.8341314 23.4733962 -10.9435070 -0.7826915 0.6214700 0.0341917
30.2833105 23.4452260 -10.3279001 -0.0019211 0.9999943 -0.0027878
31.7342712 23.4332768 -9.7305861 0.0033244 0.9999940 -0.0009598
33.1860282 23.4519768 -9.1688696 0.0005099 0.9999972 -0.0022915
34.6372217 23.4508778 -8.5841772 0.0575269 0.9982673 0.0123698
36.0884465 23.4502800 -8.0000597 0.2168490 0.9714266 -0.0964724
-36.3472504 -4.7604399 -7.5866934 -0.3999994 0.1290341 -0.9073867
-33.5216979 -3.7171996 -7.6334107 -0.0628663 -0.0220252 -0.9977789
-30.8136824 -2.7731292 -7.6149589 0.0006333 -0.0046490 -0.9999890
-28.1096493 -1.7740607 -7.6604551 -0.0021497 -0.0038869 -0.9999901
-25.4733590 -0.8095043 -7.6940614 0.0037628 -0.0039673 -0.9999851
-22.9893863 -0.0133572 -7.5979900 0.0032756 -0.0008138 -0.9999943
-20.4455391 0.9350421 -7.6504440 -0.0046031 0.0042873 -0.9999802
-17.9737917 1.8341549 -7.6760113 0.0066292 0.0004258 -0.9999779
-15.5734606 2.6794874 -7.6693227 -0.0019704 -0.0045235 -0.9999878
-13.2329713 3.4852895 -7.6418790 -0.0022709 -0.0043221 -0.9999881
-10.9146910 4.3166726 -7.6523629 0.0025766 -0.0035833 -0.9999903
-8.6346274 5.1458799 -7.6757441 0.0036546 -0.0011511 -0.9999927
-6.4123032 5.9329939 -7.6746196 0.0042319 -0.0013347 -0.9999902
-4.2376609 6.6934055 -7.6623939 0.0011794 -0.0007284 -0.9999990
-2.1079160 7.4293407 -7.6404706 0.0012862 -0.0011575 -0.9999985
0.0133306 8.2224372 -7.6867630 0.0009789 -0.0008273 -0.9999992
2.0563461 8.9093501 -7.6441339 -0.0010924 -0.0009478 -0.9999990
4.0965663 9.6693392 -7.6854690 -0.0021185 -0.0011034 -0.9999971
6.0691568 10.3353671 -7.6474762 0.0032455 -0.0025393 -0.9999915
8.0329965 11.0636948 -7.6836257 0.0022244 -0.0015004 -0.9999964
9.9341559 11.6959741 -7.6360914 0.0029288 0.0002218 -0.9999957
11.8224330 12.3807651 -7.6532643 -0.0034758 0.0005485 -0.9999938
13.6740543 13.0429300 -7.6595240 0.0006250 -0.0007295 -0.9999995
15.4895060 13.6783111 -7.6499619 0.0016147 -0.0024042 -0.9999958
17.2765504 14.3134399 -7.6515341 -0.0007324 0.0004894 -0.9999996
19.0335153 14.9399840 -7.6554668 -0.0006009 0.0006996 -0.9999996
20.7610291 15.5582402 -7.6618441 -0.0005864 0.0023955 -0.9999970
29.3157158 23.4569750 -13.1768729 -0.2903003 0.9566974 -0.0213515
30.7416407 23.4558440 -12.6023447 -0.0467770 0.9985229 -0.0276389
32.1672642 23.4401793 -12.0114622 0.0001864 1.0000000 -0.0002542
33.5935912 23.4269040 -11.4230054 -0.0007132 0.9999997 0.0002877
35.0199864 23.4393105 -10.8636346 -0.0074452 0.9999721 0.0006151
36.4450646 23.4695926 -10.3250574 0.2500576 0.9680778 -0.0172203
-36.9546774 -7.9472644 -7.7423600 -0.4205606 -0.0560044 -0.9055342
-34.2420987 -7.0825632 -7.6001305 -0.0242442 0.0000674 -0.9997061
-31.4153896 -5.9998671 -7.6510822 -0.0035355 -0.0001637 -0.9999937
-28.6771007 -4.9777567 -7.6711393 -0.0013903 -0.0078336 -0.9999684
-26.0287525 -4.0246561 -7.6516745 0.0023090 -0.0023314 -0.9999946
-23.4503606 -3.1161183 -7.6114636 0.0005067 -0.0002028 -0.9999999
-20.8477616 -2.1025356 -7.6767184 -0.0055861 0.0012109 -0.9999837
-18.3458670 -1.1846320 -7.6775318 0.0025880 -0.0012912 -0.9999958
-15.9374875 -0.3608267 -7.6127470 0.0019685 -0.0012355 -0.9999973
-13.5403734 0.5086905 -7.6026210 -0.0028495 -0.0008926 -0.9999955
-11.1239047 1.4883301 -7.7054797 -0.0012062 -0.0016903 -0.9999978
-8.8595398 2.2497651 -7.6301929 0.0035151 -0.0034379 -0.9999879
-6.5856567 3.1009408 -7.6494937 0.0000187 -0.0037288 -0.9999930
-4.3712859 3.9035104 -7.6394157 0.0013023 -0.0018886 -0.9999974
-2.1833706 4.7262163 -7.6620557 -0.0018730 -0.0028956 -0.9999941
-0.0557951 5.4901128 -7.6444600 0.0028866 0.0000390 -0.9999958
2.0400399 6.2585294 -7.6445815 -0.0012153 -0.0022191 -0.9999968
4.1000794 7.0212711 -7.6528701 -0.0004513 -0.0007525 -0.9999996
6.1154216 7.7515802 -7.6435605 0.0010616 -0.0017302 -0.9999979
8.1048172 8.5006317 -7.6652358 -0.0017094 0.0006592 -0.9999983
10.0380240 9.1726154 -7.6249837 0.0001492 0.0005623 -0.9999998
11.9588761 9.9055564 -7.6565469 -0.0013282 0.0040026 -0.9999911
13.8366684 10.5963522 -7.6592027 0.0004127 0.0026064 -0.9999965
15.6774478 11.2588186 -7.6456708 0.0001362 0.0019689 -0.9999981
17.4846364 11.9002016 -7.6225218 -0.0000819 0.0000940 -1.0000000
19.2757595 12.6040662 -7.6743519 -0.0030796 0.0023514 -0.9999925
28.3812768 23.4674843 -15.9271280 -0.6303733 0.7720608 -0.0809417
29.7810005 23.4384057 -15.3325263 -0.1595407 0.9868867 -0.0245248
31.1829243 23.4326723 -14.7626417 0.0041088 0.9999908 0.0012323
32.5854227 23.4452234 -14.2125776 0.0013581 0.9999986 0.0009541
33.9873549 23.4614548 -13.6667773 -0.0000936 0.9999998 0.0006405
35.3895575 23.4401750 -13.0797316 0.0978731 0.9950280 -0.0184422
36.7900505 23.4738214 -12.5536080 0.4474370 0.8811523 0.1528748
-34.9447994 -10.5148356 -7.6167214 -0.2057883 0.0269732 -0.9782247
-32.0936687 -9.4260106 -7.6256670 0.0227956 -0.0749132 -0.9969295
-29.2892724 -8.3368437 -7.6537633 0.0983043 -0.1123510 -0.9887940
-26.5748306 -7.3151797 -7.6464081 0.0076179 -0.1146846 -0.9933727
-23.9055760 -6.2953434 -7.6552800 -0.0793565 -0.0785994 -0.9937428
-21.3048477 -5.3168528 -7.6478365 -0.0013108 -0.0019049 -0.9999973
-18.7536956 -4.3512553 -7.6466448 -0.0071415 -0.0046318 -0.9999638
-16.2571591 -3.4092213 -7.6424107 -0.0012160 0.0035366 -0.9999930
-13.8030044 -2.4705025 -7.6516979 -0.0012102 0.0085744 -0.9999625
-11.3911563 -1.5353730 -7.6741850 0.0027193 0.0032877 -0.9999909
-9.0672806 -0.6983183 -7.6279896 0.0022484 0.0001396 -0.9999975
-6.7469500 0.2088691 -7.6576241 -0.0026715 0.0007411 -0.9999962
-4.5054348 1.0263902 -7.6238157 -0.0007168 0.0023158 -0.9999971
-2.2724442 1.9074012 -7.6607915 -0.0009776 0.0024151 -0.9999966
-0.1066232 2.7153904 -7.6473009 0.0004686 0.0012131 -0.9999992
2.0241583 3.5228716 -7.6473578 -0.0000976 0.0016567 -0.9999986
4.1227829 4.3378407 -7.6682863 0.0006112 0.0019953 -0.9999978
6.1653857 5.0904673 -7.6455966 0.0035815 -0.0007172 -0.9999933
8.1760681 5.8448155 -7.6375658 -0.0016916 -0.0012423 -0.9999978
10.1711424 6.6571903 -7.6973711 -0.0020809 -0.0007300 -0.9999976
12.0966014 7.3415552 -7.6493554 -0.0011046 -0.0015026 -0.9999983
14.0077577 8.0871245 -7.6720222 -0.0000088 0.0014635 -0.9999989
15.8745209 8.7787818 -7.6553400 0.0018759 0.0012583 -0.9999974
28.8543356 23.4526766 -18.0049580 -0.4433060 0.8902205 -0.1048199
30.2326623 23.4511077 -17.4491828 -0.1546714 0.9870958 0.0414575
31.6111785 23.4532378 -16.8972558 -0.0003043 0.9999999 0.0003073
32.9893682 23.4346977 -16.3235308 -0.0004068 0.9999991 0.0012685
34.3681611 23.4353870 -15.7699639 -0.0057518 0.9999834 -0.0001846
35.7466948 23.4432968 -15.2241616 0.2738091 0.9617762 -0.0038794
37.1220828 23.5037880 -14.7354082 0.3259336 0.9453066 -0.0127542
-35.6584621 -14.0563867 -7.6518472 -0.2358057 0.1184610 -0.9645531
-32.7006402 -12.8394746 -7.7117330 0.5614678 -0.0611028 -0.8252396
-32.3300518 -15.5749678 -4.7551709 0.9516724 0.2527236 -0.1745002
-24.4336310 -9.6840180 -7.6268648 -0.2007226 -0.1185122 -0.9724532
-21.7617262 -8.6227327 -7.6419662 -0.0009785 -0.0026738 -0.9999959
-19.1828144 -7.6476229 -7.6060060 0.0019749 -0.0021492 -0.9999957
-16.6073863 -6.6017736 -7.6440500 -0.0046957 -0.0047255 -0.9999778
-14.0693794 -5.5424230 -7.7109950 -0.0040863 -0.0019836 -0.9999897
-11.6376314 -4.6074398 -7.6930130 0.0027523 0.0013000 -0.9999954
-9.2562491 -3.6951415 -7.6719963 0.0044790 0.0019292 -0.9999881
-6.9441485 -2.8507062 -7.6091807 0.0008711 0.0006666 -0.9999994
-4.6031367 -1.8555346 -7.6894507 -0.0006377 -0.0005658 -0.9999996
-2.3725782 -1.0275207 -7.6425623 0.0002501 0.0007023 -0.9999997
-0.1571477 -0.1478398 -7.6547841 0.0015529 0.0002795 -0.9999988
2.0134217 0.7112148 -7.6638710 -0.0018899 -0.0003459 -0.9999982
4.1413353 1.5522339 -7.6715953 0.0004981 -0.0002616 -0.9999998
6.2085088 2.3157480 -7.6241909 0.0002253 0.0016679 -0.9999986
8.2632622 3.1453416 -7.6496004 -0.0023422 0.0012479 -0.9999965
10.2650021 3.9115032 -7.6312186 -0.0016335 -0.0012730 -0.9999979
12.2404997 4.7017566 -7.6481133 -0.0016796 -0.0000952 -0.9999986
29.3133635 23.4573842 -20.0344114 -0.5094632 0.8583829 0.0602157
30.6677742 23.4312379 -19.4630801 0.0037650 0.9999929 -0.0002156
32.0240068 23.4320397 -18.9186745 -0.0027576 0.9999958 -0.0009069
33.3803291 23.4564520 -18.3984655 0.0008685 0.9999995 0.0004474
34.7361425 23.4478834 -17.8446112 0.0538235 0.9985341 -0.0057211
36.0924311 23.4363110 -17.2874829 0.2219000 0.9722030 0.0747112
37.4531364 23.3575011 -16.6595696 0.7090575 0.7016955 -0.0697204
-33.4148410 -16.5108503 -7.7049430 0.2128533 0.1036654 -0.9715693
-31.5390623 -16.9777521 -6.4872571 0.5411061 0.6481485 -0.5358244
-30.0225714 -18.0712791 -4.7918291 0.2824118 0.8998138 -0.3325337
-22.2051663 -11.9994924 -7.6778324 -0.0963364 -0.0197586 -0.9951527
-19.5759454 -10.9741237 -7.6389390 -0.0006309 -0.0020586 -0.9999977
-16.9882817 -9.9463842 -7.6191063 -0.0023914 -0.0030452 -0.9999925
-14.4347993 -8.9012289 -7.6303073 -0.0043724 -0.0039878 -0.9999825
-11.9265143 -7.8593685 -7.6564070 0.0001252 -0.0034809 -0.9999939
-9.4836716 -6.8654179 -7.6612455 0.0012851 -0.0007490 -0.9999989
-7.1055603 -5.9246063 -7.6393449 0.0056291 0.0035072 -0.9999780
-4.7573196 -4.9612516 -7.6518360 -0.0003819 -0.0002292 -0.9999999
-2.4727397 -4.0571608 -7.6310763 0.0017662 -0.0021678 -0.9999961
-0.2097467 -3.1100104 -7.6617490 0.0028128 -0.0018362 -0.9999944
1.9874244 -2.2371234 -7.6451465 -0.0007727 -0.0024009 -0.9999968
4.1465607 -1.3690560 -7.6390491 -0.0005047 -0.0009592 -0.9999994
6.2789337 -0.4706859 -7.6737990 -0.0005487 0.0001103 -0.9999998
8.3562209 0.3673215 -7.6707595 0.0005365 0.0022452 -0.9999973
28.4230986 23.4529669 -22.5254833 -0.6268191 0.7762322 0.0675375
29.7568523 23.4517702 -21.9881035 -0.2777120 0.9587609 0.0604443
31.0905573 23.4481732 -21.4483600 -0.0012984 0.9999557 -0.0093276
32.4244641 23.4471352 -20.9110762 -0.0025077 0.9999953 -0.0017570
33.7584097 23.4528008 -20.3804329 -0.0031152 0.9999947 0.0009089
35.0926120 23.4355704 -19.8269527 -0.0048330 0.9999875 0.0012965
36.4260786 23.4526459 -19.3078309 0.1838359 0.9829310 -0.0071372
-34.1596016 -20.3336426 -7.6960848 -0.4126691 -0.5007951 -0.7608604
-31.1610905 -19.0431214 -7.7302174 0.1641400 0.2453762 -0.9554311
-28.6595399 -18.5062116 -7.2402699 -0.0312513 0.5307809 -0.8469327
-26.2385622 -18.0722296 -6.6838487 -0.2253705 0.2341035 -0.9457292
-22.6900154 -15.5482663 -7.6816167 -0.0693758 -0.0085356 -0.9975541
-20.0237260 -14.5003069 -7.6163201 -0.0123791 0.0015833 -0.9999221
-17.3787248 -13.4094433 -7.6007925 -0.0026261 0.0005169 -0.9999964
-14.7577419 -12.2758545 -7.6359596 -0.0105673 0.0008520 -0.9999438
-12.1854135 -11.1467698 -7.6863603 -0.0006745 0.0026257 -0.9999963
-9.7116322 -10.1348382 -7.6638495 0.0001209 -0.0011967 -0.9999993
-7.2742585 -9.1107793 -7.6676238 0.0014136 0.0004533 -0.9999989
-4.8901851 -8.1145282 -7.6661154 0.0013523 0.0003656 -0.9999990
-2.5681395 -7.1732909 -7.6367009 0.0018045 -0.0003320 -0.9999983
-0.2680612 -6.1861070 -7.6602507 0.0004798 -0.0014302 -0.9999989
1.9661333 -5.2728690 -7.6392597 0.0012608 -0.0003689 -0.9999991
4.1638241 -4.3565184 -7.6359334 -0.0000225 -0.0020145 -0.9999980
6.3323798 -3.4119900 -7.6713856 -0.0031447 -0.0004059 -0.9999950
28.8628197 23.3045008 -24.2757715 -0.2885382 0.9339473 -0.2109223
30.1808065 23.3468071 -23.7865550 -0.0047294 0.9937271 -0.1117323
31.4974891 23.4016081 -23.3098643 0.0072016 0.9971374 -0.0752669
32.8117210 23.4422603 -22.8205686 -0.0028534 0.9986556 -0.0517575
34.1245361 23.4434234 -22.2939118 -0.0028819 0.9994347 -0.0334963
35.4370214 23.4550547 -21.7774427 -0.0044893 0.9997781 -0.0205817
36.7488280 23.4709223 -21.2653155 0.5085856 0.8581346 0.0703255
-29.0117084 -21.8622757 -7.5843595 -0.0161095 -0.3552343 -0.9346385
-25.9681826 -20.3541755 -7.7620863 -0.0087105 -0.0559294 -0.9983967
-23.2352266 -19.3136651 -7.6301988 -0.0531745 0.0230599 -0.9983189
-20.4609873 -18.1108720 -7.6325022 0.0042272 -0.0013206 -0.9999902
-17.7556400 -16.9491579 -7.6243322 -0.0031401 0.0059555 -0.9999773
-15.0972662 -15.7874641 -7.6350276 -0.0050883 0.0037988 -0.9999798
-12.4573980 -14.5629442 -7.7115383 -0.0010296 -0.0028758 -0.9999953
-9.9699883 -13.5763391 -7.6282776 0.0019444 -0.0011628 -0.9999974
-7.4667139 -12.4545927 -7.6642077 0.0029358 0.0006328 -0.9999955
-5.0593111 -11.4616296 -7.6190188 0.0020117 -0.0003828 -0.9999979
-2.6557971 -10.3712385 -7.6659199 0.0010116 -0.0014783 -0.9999984
-0.3435236 -9.4148669 -7.6249750 0.0032732 0.0003041 -0.9999946
1.9470314 -8.4074090 -7.6402288 0.0003890 0.0004814 -0.9999998
29.2728463 22.9006655 -25.7451930 -0.4183507 0.8590718 -0.2949208
30.5843289 23.0706398 -25.3758892 0.0012779 0.9477715 -0.3189475
31.8875325 23.1911892 -24.9639896 0.0130225 0.9622854 -0.2717301
33.1854454 23.2612401 -24.5072956 -0.0013751 0.9845290 -0.1752163
34.4807075 23.3161258 -24.0375762 -0.0042358 0.9903406 -0.1385913
35.7738850 23.3668423 -23.5648210 0.0117775 0.9937091 -0.1113715
37.0644139 23.4289807 -23.1037435 0.0131357 0.9950984 -0.0980133
-23.7388036 -23.1118671 -7.6619063 -0.0984508 -0.7817928 -0.6157170
-20.9411033 -21.9143845 -7.6134438 0.1143249 -0.3911010 -0.9132195
-18.1549947 -20.6417864 -7.6371532 -0.0425131 -0.2679525 -0.9624937
-15.3976546 -19.3216449 -7.7151583 0.0004478 -0.0034979 -0.9999938
-12.7950354 -18.2335051 -7.6468480 -0.0012119 -0.0005075 -0.9999991
-10.2114648 -17.0876668 -7.6380530 0.0005324 0.0012187 -0.9999991
-7.6613921 -15.9116001 -7.6698933 -0.0012967 -0.0028066 -0.9999952
-5.1795471 -14.7917894 -7.6786010 0.0037512 0.0005810 -0.9999928
-2.7793560 -13.7747555 -7.6277624 0.0017992 0.0012292 -0.9999976
-0.3901399 -12.6711689 -7.6591268 -0.0017154 0.0005125 -0.9999984
28.3496364 22.0839006 -27.3420394 -0.2431317 0.8455137 -0.4753878
29.6653238 22.3460096 -27.0486862 -0.1554682 0.8657875 -0.4756486
30.9665507 22.5130775 -26.6757264 0.0025375 0.8825188 -0.4702703
32.2613873 22.6916878 -26.3157096 0.0166880 0.9003662 -0.4348129
33.5490810 22.8572137 -25.9468046 0.0022435 0.9358824 -0.3523054
34.8307705 22.9890176 -25.5500050 0.0059635 0.9547566 -0.2973285
36.1087005 23.0808850 -25.1188231 0.0531169 0.9625235 -0.2659456
37.3845932 23.1444065 -24.6629838 0.0795535 0.9705107 -0.2275528
-15.8066218 -23.2050792 -7.6484133 0.0226019 -0.7745321 -0.6321306
-13.1114698 -21.9723775 -7.6364989 0.1094393 -0.2903586 -0.9506392
-10.4219301 -20.6351655 -7.7176910 0.0509902 -0.1761411 -0.9830434
-7.8852743 -19.5561942 -7.6358575 0.0436346 -0.0449673 -0.9980350
-5.3566186 -18.3843978 -7.6379327 0.0010344 -0.0006739 -0.9999992
-2.8841291 -17.2418537 -7.6371587 0.0010907 0.0000820 -0.9999994
28.7370105 21.3993278 -28.5155389 -0.1966285 0.7823439 -0.5909952
30.0427925 21.6273376 -28.1888003 -0.1684971 0.8549165 -0.4906389
31.3393427 21.8472363 -27.8587222 0.0198772 0.8086675 -0.5879301
32.6269631 22.0485201 -27.5160521 0.0161614 0.8321311 -0.5543434
33.9066941 22.2495986 -27.1763752 0.0125402 0.8517673 -0.5237701
35.1788861 22.4354642 -26.8265047 0.0243668 0.8829034 -0.4689220
36.4437003 22.6235145 -26.4814992 0.0442775 0.8983670 -0.4370083
-5.4957394 -21.9940379 -7.6830279 0.0265584 -0.3179873 -0.9477229
29.1033613 20.4707854 -29.4739519 -0.3972139 0.4954338 -0.7725066
30.4101302 20.7758835 -29.2051058 -0.0315307 0.7360545 -0.6761875
31.7042113 21.0510540 -28.9162003 -0.0090751 0.7731039 -0.6342145
32.9871720 21.2812555 -28.5939596 0.0171846 0.7471739 -0.6644063
34.2611660 21.5208888 -28.2832532 0.0123836 0.7741220 -0.6329153
35.5259716 21.7581893 -27.9742794 0.0038315 0.8241374 -0.5663770
36.7818913 21.9895915 -27.6639191 0.0603466 0.8508425 -0.5219438
29.4609413 19.4170031 -30.3299991 -0.3523671 0.5642590 -0.7466252
30.7687455 19.7651060 -30.0872317 -0.0386791 0.6372985 -0.7696457
32.0623347 20.0736282 -29.8180017 -0.0117198 0.6740986 -0.7385484
33.3442265 20.3893053 -29.5592908 -0.0103361 0.7083699 -0.7057658
34.6145969 20.6687967 -29.2757943 -0.0167891 0.7352525 -0.6775853
35.8743454 20.9479603 -28.9963017 0.0236314 0.7336504 -0.6791161
37.1233414 21.2296897 -28.7232174 0.0334944 0.7514953 -0.6588877
28.4783555 17.7354987 -31.2342672 -0.5474151 0.4260776 -0.7202740
29.8095964 18.1936282 -31.0591813 -0.2001778 0.4971453 -0.8442603
31.1219684 18.6068523 -30.8563848 -0.0225409 0.5163858 -0.8560594
32.4184745 19.0003577 -30.6444676 -0.0119223 0.5576717 -0.8299760
33.7002166 19.3422949 -30.3979525 -0.0094032 0.5980131 -0.8014311
34.9693917 19.6706123 -30.1457843 0.0062600 0.6338979 -0.7733914
36.2269183 19.9812158 -29.8843755 0.0445494 0.6322916 -0.7734486
37.4791475 20.1785021 -29.5360277 0.0363765 0.6552338 -0.7545498
28.8113209 16.2633116 -31.8042922 -0.4803198 0.1197773 -0.8688765
30.1499771 16.7539242 -31.6389176 -0.0547283 0.2945387 -0.9540711
31.4711605 17.2650658 -31.4961660 -0.0197474 0.3714031 -0.9282617
32.7725340 17.7081054 -31.3096318 -0.0141964 0.4251101 -0.9050303
34.0577511 18.1075374 -31.0964577 -0.0081129 0.4683662 -0.8834972
35.3279329 18.5187127 -30.8982511 0.0087426 0.5094395 -0.8604621
36.5842373 18.8984564 -30.6817405 0.0431030 0.5707488 -0.8199926
29.1203799 14.3222559 -32.0630160 -0.4950331 -0.0434084 -0.8677891
30.4797684 14.9643251 -31.9880603 -0.1584420 0.0987897 -0.9824137
31.8166062 15.6381656 -31.9455036 -0.0095165 0.1579925 -0.9873944
33.1280208 16.2060982 -31.8353876 -0.0015055 0.2144553 -0.9767327
34.4196760 16.6805466 -31.6645596 0.0014406 0.2672487 -0.9636265
35.6938595 17.1616213 -31.5056220 0.0145315 0.3566202 -0.9341364
36.9508828 17.6348015 -31.3477852 0.3032298 0.3158058 -0.8990653
29.4129280 11.9007153 -32.0330202 -0.4490811 -0.0249364 -0.8931430
30.8018580 12.7525292 -32.0791663 -0.0076420 0.0074020 -0.9999434
32.1594914 13.5713539 -32.1144823 0.0038664 0.0286235 -0.9995828
33.4872832 14.2537300 -32.0649596 0.0116867 0.0673578 -0.9976604
34.7908713 14.9151935 -32.0103258 0.0520004 0.0928682 -0.9943196
36.0735210 15.4905587 -31.9030069 0.2053200 0.1006262 -0.9735081
37.3357184 16.0616429 -31.8008721 0.6813672 0.2366848 -0.6926176
28.2800988 8.5897972 -32.0331210 -0.6099037 0.1067197 -0.7852569
29.7216934 9.4845742 -32.0670701 -0.2748754 0.1236930 -0.9534902
31.1281561 10.2771791 -32.0450895 -0.0048287 -0.0063298 -0.9999683
32.5067728 11.0847570 -32.0445696 0.0029184 -0.0047441 -0.9999845
33.8567956 11.8817716 -32.0483023 0.0049235 -0.0030952 -0.9999831
35.1791615 12.6490573 -32.0427703 0.0851596 0.0011560 -0.9963667
36.4745039 13.4119816 -32.0451118 0.3553677 0.0080810 -0.9346916
28.5790597 6.0675205 -32.0856512 -0.4768616 0.0593956 -0.8769693
30.0396548 6.9363314 -32.0738333 -0.1899976 -0.0649856 -0.9796315
31.4684769 7.7552975 -32.0417791 -0.0316758 -0.0038565 -0.9994908
32.8696235 8.6625506 -32.0793187 0.0056849 -0.0000570 -0.9999838
34.2401265 9.4113700 -32.0242555 0.0026980 -0.0027572 -0.9999926
35.5821295 10.2563392 -32.0443246 0.2327215 0.0118573 -0.9724711
36.8951497 11.0881097 -32.0673045 0.4357089 -0.0175976 -0.8999156
28.8804458 3.3037511 -32.0483842 -0.3583328 -0.0613697 -0.9315747
30.3671123 4.2251812 -32.0399520 -0.1780564 -0.0283624 -0.9836115
31.8225147 5.1688070 -32.0582821 0.0062659 -0.0061198 -0.9999616
33.2449360 6.0362639 -32.0411629 0.0039591 -0.0014785 -0.9999911
34.6373091 6.9154380 -32.0436165 0.0781876 -0.0258104 -0.9966045
36.0011203 7.7334272 -32.0184261 0.2927618 -0.1080026 -0.9500663
37.3359370 8.5685326 -32.0158374 0.5898345 -0.0481523 -0.8060873
29.1982189 0.5025987 -32.0551714 -0.3508211 0.0096375 -0.9363929
30.7112662 1.5012648 -32.0633852 -0.1984779 -0.0303000 -0.9796369
32.1889121 2.4210778 -32.0371544 0.0032892 0.0011804 -0.9999939
33.6352828 3.3681851 -32.0403457 -0.0016842 0.0013682 -0.9999976
35.0506971 4.2359957 -32.0070315 0.1442631 0.0223643 -0.9892866
36.4320988 5.2392831 -32.0710219 0.4798040 -0.0265197 -0.8769748
29.5278033 -2.4316313 -32.0503885 -0.3575504 -0.0387492 -0.9330896
31.0668229 -1.3970141 -32.0480150 -0.1824023 -0.0196031 -0.9830285
32.5705182 -0.4064603 -32.0335931 0.0015973 -0.0002178 -0.9999987
34.0408530 0.6082268 -32.0469593 0.0054713 0.0000753 -0.9999850
35.4779789 1.5805006 -32.0484097 0.1877059 0.0319180 -0.9817065
36.8815440 2.5770110 -32.0777904 0.4811805 0.0574504 -0.8747370
29.8712186 -5.4838229 -32.0475169 -0.4073358 -0.1252867 -0.9046440
31.4373443 -4.4060681 -32.0372715 -0.0517635 -0.0097147 -0.9986121
32.9675543 -3.3503918 -32.0287767 -0.0010396 0.0011715 -0.9999988
34.4622087 -2.2282379 -32.0727793 0.1204997 -0.0073761 -0.9926860
35.9239953 -1.2802079 -32.0299298 0.2113640 -0.0289202 -0.9769795
37.3532372 -0.3053717 -32.0155688 0.6823158 0.0698018 -0.7277175
28.5954407 -9.8383563 -32.0510963 -0.5837021 0.0826802 -0.8077474
30.2270398 -8.7233263 -32.0130892 -0.4613800 0.0641946 -0.8848771
31.8251580 -7.4567968 -32.0724994 -0.0793141 0.0146025 -0.9967427
33.3811682 -6.3720337 -32.0481070 -0.0052733 -0.0007690 -0.9999858
34.9013043 -5.2588085 -32.0539097 0.1904401 0.0557517 -0.9801144
36.3857291 -4.1706164 -32.0601961 0.5646404 -0.0086061 -0.8252922
28.9391311 -13.1955322 -32.0627968 -0.3774726 -0.0333462 -0.9254202
30.6035179 -11.9528917 -32.0574873 -0.1881834 0.0274399 -0.9817505
32.2277677 -10.7081757 -32.0694223 0.0013581 0.0016824 -0.9999977
33.8118738 -9.5557484 -32.0481963 0.0526287 0.0022151 -0.9986117
35.3586217 -8.3971507 -32.0452851 0.3236567 0.1411756 -0.9355831
36.8660532 -7.1825900 -32.0880744 0.5142264 0.0890230 -0.8530217
30.9895073 -15.5594338 -31.9824326 -0.3205430 -0.1337995 -0.9377366
32.6482324 -14.0724240 -32.0809488 -0.0217848 -0.0486256 -0.9985795
34.2612322 -12.9064747 -32.0326001 0.1507275 -0.0472626 -0.9874449
35.8355806 -11.6738092 -32.0341282 0.5400850 0.0727799 -0.8384577
37.3745897 -10.5485542 -31.9945800 0.8935944 0.0291457 -0.4479282
36.3397214 -15.3405404 -31.8977044 0.8322612 0.1182167 -0.5416329
37.5374487 13.9418003 -31.5467331 0.8389503 0.1202135 -0.5307647
37.4961942 15.0249084 -29.9576206 0.9375443 0.1177767 -0.3273215
37.4912413 16.0758371 -28.3374446 0.9769654 0.2081780 -0.0469089
37.5281221 17.0845078 -26.6895030 0.9857335 0.0453152 0.1620986
37.5308940 18.1733317 -24.9932678 0.1129726 -0.8968426 0.4276804
37.5042973 19.3374312 -23.2457317 0.2096117 -0.9571275 0.1999247
37.5090912 20.4779798 -21.4646983 0.9886595 0.0263485 -0.1478451
37.4948478 21.6795033 -19.6315051 0.9312427 0.3246332 -0.1655303
37.5303243 22.8263874 -17.7721655 0.8093659 0.5844957 -0.0573726
37.5450479 11.3772996 -31.3305387 0.9370237 0.0975820 -0.3353570
37.4839912 12.4439528 -29.7583241 0.9299698 0.0020800 -0.3676300
37.4959034 13.4226795 -28.1641025 0.9313754 -0.0882998 0.3531898
35.8747126 16.9793461 -26.0852554 0.3054167 -0.6690923 0.6775220
35.7757913 18.2111094 -24.3330822 0.0486864 -0.9724445 0.2279942
36.2366191 18.5758126 -22.7205331 0.2803574 -0.9598580 0.0085020
37.1135186 18.2746389 -21.2460064 0.3641967 -0.8795010 -0.3063311
37.4875302 18.7917159 -19.5831405 0.9101522 -0.3984775 -0.1133074
37.4863508 19.9455430 -17.7376743 0.9989040 0.0459934 -0.0086796
37.4843400 21.1300937 -15.8448531 0.9389441 0.3279027 0.1042293
37.4783240 22.3519668 -13.9011905 0.7320350 0.6573780 0.1788267
37.5133927 8.9453993 -31.1131977 0.7546324 -0.2067297 -0.6227301
37.5041771 9.8904336 -29.5718528 0.9893315 0.0506774 -0.1365833
37.4765648 10.8847941 -27.9900384 0.9857280 0.0859847 0.1447307
33.6538541 17.6619985 -25.3198721 0.0355014 -0.9531234 0.3004921
33.8507362 18.4264795 -23.6170027 -0.0873449 -0.9924293 0.0863424
34.4883686 18.5243214 -22.0323308 -0.0115822 -0.9683905 -0.2491699
35.5268241 17.9942134 -20.5910157 0.2690218 -0.7530141 -0.6004973
36.9054099 16.9097847 -19.3068104 0.8231825 -0.2520885 -0.5087455
37.5010666 17.0601625 -17.7289841 0.9454799 -0.1712907 -0.2769969
37.5052984 18.1792157 -15.8700187 0.9704171 -0.1732890 -0.1681119
37.4996977 19.3428473 -13.9593187 0.9996547 0.0259099 -0.0043657
37.4887592 20.5452508 -11.9964502 0.9477337 0.3150267 0.0505872
37.4903064 21.7577247 -9.9890743 0.8873629 0.4605995 0.0208604
37.5360460 22.9262139 -7.9557731 0.7961797 0.5879288 -0.1429601
37.4899812 6.5701839 -30.9033032 0.8974147 -0.1388747 -0.4187609
37.4884698 7.4636048 -29.3830527 0.9952684 0.0208503 -0.0949001
37.4935456 8.3676760 -27.8299394 0.9859172 0.1252304 0.1108358
37.4942766 9.2988589 -26.2402861 0.9892836 0.1016371 0.1048228
31.9685002 18.4827762 -22.9097246 -0.0225152 -0.9997166 -0.0077272
32.7944265 18.3109431 -21.3595989 -0.0112751 -0.9523617 -0.3047624
33.9898954 17.5715782 -19.9526473 -0.0079384 -0.8810985 -0.4728661
35.6586381 16.0841771 -18.7652078 0.2881814 -0.7328631 -0.6163304
37.5578253 14.2007178 -17.7389303 0.9610043 0.1382905 -0.2394714
37.4745556 15.4051971 -15.8706617 0.9917057 0.0595309 -0.1139117
37.4939518 16.4753432 -14.0023693 0.9999912 -0.0006170 0.0041533
37.5047785 17.5863736 -12.0834778 0.9999917 -0.0037423 0.0016261
37.4904043 18.7671569 -10.1018702 0.9999910 -0.0041020 0.0010847
37.4912139 19.9532475 -8.0773267 0.9702842 0.2418613 0.0071843
37.4810508 21.1889184 -5.9927171 0.9398087 0.3258368 -0.1029073
37.4754988 22.4495435 -3.8552608 0.7422203 0.6660583 0.0739955
37.4818142 4.2401123 -30.7020918 0.9542969 0.0813830 -0.2875660
37.5028639 5.0634820 -29.2062634 0.9962372 0.0179847 -0.0847823
37.4706577 5.9804511 -27.6645794 0.9999981 -0.0016658 -0.0010098
37.5020959 6.8272187 -26.1043953 0.9999999 -0.0003335 0.0003125
37.4720060 7.7822076 -24.4910865 0.9786501 0.1991808 -0.0507059
37.4921233 8.6858875 -22.8560200 0.9841358 0.1535958 -0.0887974
37.4773916 9.6622058 -21.1709049 0.9830043 0.1215044 -0.1376198
37.5052232 10.5979404 -19.4622174 0.9999711 -0.0076045 0.0000112
37.4883445 11.6237462 -17.6948123 0.9999877 -0.0039574 0.0029919
37.5113207 12.6133335 -15.9021978 0.9999761 -0.0029630 0.0062490
37.4710104 13.7253293 -14.0354179 0.9999740 -0.0039690 0.0060149
37.4805961 14.7865812 -12.1465805 0.9999978 -0.0016589 0.0012615
37.4919332 15.8717189 -10.2118038 0.9999947 -0.0028412 0.0015694
37.4704970 17.0372414 -8.2087149 0.9999975 -0.0019506 0.0010934
37.4870982 18.1707772 -6.1770265 0.9999999 0.0003474 -0.0000592
37.4938299 19.3502210 -4.0865802 0.9977087 0.0661457 0.0142175
37.4768240 20.6006101 -1.9242678 0.9808563 0.1891184 -0.0464245
37.4750193 21.8587415 0.2855917 0.9022450 0.2876594 0.3212568
37.4767689 1.1718733 -31.9571311 0.7324626 0.0830289 -0.6757253
37.5117344 1.9236473 -30.5141198 0.9809482 0.0518972 -0.1872092
37.4799496 2.7822599 -29.0260863 0.9991052 0.0079909 -0.0415333
37.4882749 3.6048040 -27.5140303 0.9999989 -0.0012484 0.0008008
37.4800312 4.4686091 -25.9640337 0.9999995 -0.0008058 -0.0006671
37.4990171 5.3136986 -24.3872519 0.9999996 0.0002352 -0.0008446
37.4909767 6.2163204 -22.7663231 0.9999984 0.0014912 0.0009639
37.4800541 7.1438520 -21.1065976 1.0000000 -0.0000456 0.0001536
37.4697320 8.0921137 -19.4078931 0.9999991 -0.0013288 -0.0003213
37.4997003 9.0036054 -17.6860377 0.9999971 -0.0023194 -0.0006454
37.4761127 10.0163439 -15.8998675 0.9999942 -0.0018904 0.0028394
37.4860379 11.0031650 -14.0859668 0.9999996 0.0000649 0.0009297
37.4862695 12.0288337 -12.2231638 0.9999993 -0.0006518 0.0010001
37.4674456 13.1092062 -10.3035613 0.9999990 0.0010803 -0.0009155
37.4849155 14.1600454 -8.3565870 0.9999984 0.0016482 -0.0006602
37.4786486 15.2750045 -6.3461637 0.9999989 -0.0007744 -0.0012733
37.4914402 16.3881206 -4.2965549 0.9999994 0.0006860 -0.0008440
37.4893577 17.5542881 -2.1838152 0.9874629 0.0295267 0.1550649
37.4996901 18.7308174 -0.0245563 0.9348807 0.0564071 0.3504516
37.5238268 -1.0684758 -31.7591498 0.8996540 -0.1303502 -0.4166912
37.4826557 -0.2510262 -30.3195226 0.9760647 0.0986931 -0.1937975
37.4813858 0.5314922 -28.8562949 0.9999957 0.0001259 -0.0029327
37.4710463 1.3430472 -27.3589068 0.9999930 -0.0020924 0.0030881
37.4793912 2.1472915 -25.8335184 0.9999962 -0.0027299 -0.0004241
37.4995711 2.9532901 -24.2784322 0.9999927 -0.0037971 -0.0003006
37.4884684 3.8203534 -22.6787514 0.9999945 -0.0021283 0.0025299
37.4788250 4.7050554 -21.0427676 0.9999983 -0.0002572 0.0018239
37.4929343 5.5766648 -19.3783055 0.9999988 -0.0014254 0.0006500
37.4845626 6.5004715 -17.6662202 0.9999987 -0.0001071 -0.0015790
37.4869052 7.4305552 -15.9184646 0.9999995 0.0008868 0.0003931
37.4841652 8.3901370 -14.1267865 0.9999976 -0.0009946 0.0019579
37.4674613 9.3933656 -12.2844976 0.9999990 0.0013901 -0.0003194
37.5058466 10.3388594 -10.4274367 0.9999999 -0.0000608 -0.0004739
37.4778766 11.4078191 -8.4871411 0.9999998 0.0004351 -0.0005087
37.4876840 12.4457038 -6.5207598 0.9999998 0.0006584 -0.0000304
37.4930500 13.5166800 -4.5022926 0.9999996 -0.0008772 -0.0002033
37.4789449 14.6455773 -2.4187617 0.9999281 -0.0018519 0.0118514
37.4870475 15.7684670 -0.2969262 0.9935101 0.0585638 0.0975083
37.5377899 -3.2053338 -31.5609578 0.8757005 -0.0198233 -0.4824475
37.5010774 -2.4278511 -30.1398071 0.9876810 -0.0032569 -0.1564471
37.4723278 -1.6440702 -28.6887098 0.9999679 0.0035986 0.0071656
37.4851518 -0.8971376 -27.2160727 0.9999921 0.0036485 0.0015498
37.4702342 -0.0978838 -25.7041944 0.9999998 -0.0004283 -0.0005461
37.4783055 0.6885475 -24.1658022 0.9999982 -0.0015521 -0.0010729
37.4757595 1.5065117 -22.5901429 0.9999993 -0.0012101 0.0001619
37.4782430 2.3359834 -20.9810123 0.9999975 -0.0017783 0.0013483
37.4665807 3.2034817 -19.3299347 0.9999991 -0.0013393 -0.0001759
37.5004772 4.0280258 -17.6602279 0.9999987 -0.0015274 0.0004527
37.4671606 4.9653450 -15.9224923 0.9999987 -0.0015375 -0.0004312
37.4995632 5.8319038 -14.1748942 0.9999993 0.0008597 0.0007806
37.4759567 6.7989127 -12.3580911 0.9999995 -0.0008549 -0.0004986
37.4747131 7.7567941 -10.5090283 0.9999995 0.0001313 0.0009978
37.4907772 8.7126051 -8.6253433 0.9999993 -0.0009843 -0.0006434
37.4843728 9.7251264 -6.6821639 0.9999986 -0.0016640 0.0002209
37.4777944 10.7630731 -4.6902189 1.0000000 0.0000256 -0.0002375
37.4814497 11.8116172 -2.6549484 0.9999776 -0.0002799 0.0066927
37.4860913 12.8853703 -0.5687413 0.9997566 -0.0032907 0.0218141
37.5202384 13.9409299 1.5481387 0.9359988 0.0921750 0.3397204
37.5136822 -5.2388034 -31.3610397 0.9244396 -0.0010197 -0.3813271
37.4865120 -4.5051942 -29.9581096 0.9963389 0.0218498 -0.0826517
37.5017793 -3.8088028 -28.5347249 0.9999797 -0.0012753 0.0062488
37.4934993 -3.0682549 -27.0757961 0.9999914 0.0023307 0.0034354
37.4755127 -2.2996384 -25.5825314 0.9999970 0.0019919 0.0014504
37.4855866 -1.5503140 -24.0651340 0.9999982 0.0002965 0.0018523
37.4746658 -0.7575339 -22.5078941 1.0000000 -0.0002161 -0.0000379
37.4872746 0.0219799 -20.9246114 0.9999995 0.0010351 -0.0001000
37.4791975 0.8461824 -19.2983373 0.9999955 -0.0009639 -0.0028365
37.4817324 1.6747809 -17.6396111 0.9999994 0.0010267 0.0004510
37.4768651 2.5322603 -15.9397856 0.9999999 -0.0000014 -0.0005302
37.4780196 3.4012765 -14.2035059 0.9999990 -0.0007506 0.0011973
37.4894417 4.2763634 -12.4322012 0.9999986 -0.0002479 -0.0016744
37.4863139 5.1924477 -10.6115761 0.9999999 -0.0000400 0.0003515
37.4794979 6.1356242 -8.7451322 0.9999994 0.0007070 -0.0007824
37.4754024 7.0976947 -6.8349234 0.9999993 0.0011897 -0.0002716
37.4848975 8.0635908 -4.8867532 1.0000000 0.0000649 -0.0001788
37.4935851 9.0545903 -2.8903034 0.9999953 0.0014173 -0.0027121
37.4853212 10.0956326 -0.8318466 0.9997057 0.0012717 0.0242242
37.5303766 11.0828511 1.2382200 0.9019493 0.0106722 0.4317100
37.5035023 -7.2364261 -31.1687316 0.8895099 0.0141048 -0.4566981
37.4715102 -6.5277024 -29.7809480 0.9988933 -0.0067098 -0.0465535
37.4953593 -5.8714397 -28.3765580 0.9999897 -0.0034522 0.0029486
37.4912902 -5.1676355 -26.9365892 0.9999990 -0.0009743 0.0010542
37.4741654 -4.4330148 -25.4623083 0.9999969 -0.0000102 0.0024801
37.4763418 -3.7066941 -23.9620430 0.9999992 0.0009926 0.0007665
37.4822128 -2.9693921 -22.4309234 0.9999988 0.0010259 -0.0011617
37.4677965 -2.1903850 -20.8592117 0.9999994 0.0010304 -0.0003985
37.4732108 -1.4196541 -19.2602852 0.9999982 0.0006972 -0.0017716
37.4911060 -0.6479623 -17.6315274 0.9999991 0.0006403 -0.0011883
37.4931670 0.1617833 -15.9597576 0.9999975 0.0019374 -0.0011392
37.4672000 1.0270200 -14.2362863 0.9999991 0.0013197 -0.0003395
37.4858346 1.8524147 -12.4953106 0.9999992 0.0008114 -0.0009515
37.4763894 2.7350240 -10.6992007 0.9999998 0.0004683 -0.0004999
37.4941356 3.6011218 -8.8764045 0.9999998 0.0004897 0.0004736
37.4812182 4.5303469 -6.9920669 0.9999997 0.0005430 -0.0005918
37.4908435 5.4503093 -5.0764929 0.9999999 -0.0005175 0.0000203
37.4834708 6.4168382 -3.1029773 0.9999998 0.0000985 -0.0006836
37.4808216 7.4004208 -1.0838091 0.9996751 -0.0003831 0.0254873
37.5158452 8.3537224 0.9570861 0.9684597 -0.0094630 0.2489904
37.4794925 -9.1670708 -30.9785833 0.9481733 -0.0287386 -0.3164514
37.4789916 -8.5239786 -29.6131531 0.9982992 0.0274653 -0.0514240
37.4849637 -7.8753505 -28.2215141 0.9999984 -0.0017730 0.0003009
37.4833148 -7.2044290 -26.7995097 0.9999998 -0.0000055 -0.0006462
37.4803838 -6.5180576 -25.3475359 0.9999988 0.0011732 0.0009763
37.4873631 -5.8291986 -23.8681599 0.9999996 0.0007336 0.0005439
37.4874583 -5.1173796 -22.3553574 0.9999980 0.0020042 0.0002288
37.4824678 -4.3840698 -20.8082373 0.9999983 0.0018133 0.0003294
37.4885443 -3.6486101 -19.2318514 0.9999980 0.0003457 -0.0019743
37.4859483 -2.8861734 -17.6174938 0.9999946 0.0003277 -0.0032796
37.4880734 -2.1128477 -15.9694617 0.9999977 0.0021112 -0.0003639
37.4798244 -1.3089115 -14.2795350 0.9999986 0.0015557 0.0005781
37.4986694 -0.5219127 -12.5651356 0.9999979 0.0020535 -0.0002351
37.4820066 0.3296755 -10.7927263 0.9999978 0.0007790 -0.0019329
37.4890698 1.1695064 -8.9923533 0.9999995 0.0009558 0.0004013
37.4743448 2.0582616 -7.1366409 0.9999995 0.0006047 -0.0008425
37.4895870 2.9273848 -5.2557700 0.9999999 0.0003164 -0.0003926
37.4854951 3.8439359 -3.3172634 0.9999989 0.0011954 -0.0008414
37.4751277 4.7914750 -1.3269130 0.9995492 -0.0036720 0.0297972
37.4949695 5.7197623 0.6899440 0.9246710 0.0270871 0.3798025
32.2897542 14.1212986 6.9267654 0.4212578 0.4377809 0.7942857
37.5005413 -11.0993344 -30.8019158 0.9883268 -0.0044999 -0.1522821
37.4856585 -10.4676418 -29.4495848 0.9999250 0.0042760 -0.0114768
37.4775146 -9.8308854 -28.0711077 0.9998186 -0.0030598 0.0188016
37.4893401 -9.2040101 -26.6697396 0.9828521 -0.1327130 0.1280196
37.4832502 -8.5436411 -25.2348876 0.9873785 -0.1413619 0.0714172
37.4862157 -7.8801560 -23.7729923 0.9707374 -0.1904527 0.1462763
37.4872760 -7.2005561 -22.2800026 0.9943889 -0.1050802 0.0121987
37.4735569 -6.4890170 -20.7499405 0.9999893 0.0042415 0.0018644
37.4799414 -5.7864510 -19.1946960 0.9999998 -0.0002969 0.0005261
37.4820031 -5.0634672 -17.6043140 0.9999992 -0.0010229 -0.0006881
37.4963212 -4.3397630 -15.9850002 0.9999986 -0.0007793 -0.0014993
37.4934533 -3.5787485 -14.3222036 0.9999994 -0.0005206 -0.0010058
37.4862991 -2.7953749 -12.6199303 0.9999994 0.0010835 -0.0000190
37.4807094 -1.9963158 -10.8797613 0.9999989 0.0013469 -0.0005350
37.4946362 -1.2040931 -9.1110333 0.9999991 0.0012586 0.0003901
37.4863584 -0.3647359 -7.2884740 0.9999994 0.0009560 0.0005742
37.4881475 0.4809873 -5.4294859 0.9999988 -0.0001486 0.0015383
37.4886188 1.3484435 -3.5257699 1.0000000 -0.0000034 -0.0001253
37.4938217 2.2302704 -1.5799743 0.9995286 -0.0011862 0.0306774
37.4906389 3.1448574 0.4189629 0.9495464 -0.0008724 0.3136254
33.7930013 9.1759025 5.3955797 0.7168509 -0.0062522 0.6971985
37.4602848 -13.4943419 -31.9265154 0.7471554 0.0571496 -0.6621878
37.4964833 -12.9551641 -30.6248916 0.9793216 0.0012966 -0.2023055
37.4842735 -12.3528950 -29.2884418 0.9998814 0.0069184 -0.0137623
37.4804089 -11.7478367 -27.9270531 0.9870388 -0.0312276 0.1574144
37.5158918 -11.1742104 -26.5490255 0.9319214 -0.1983789 0.3035925
37.2660222 -10.2700491 -25.0593814 0.6684598 -0.6622157 0.3385733
37.2898575 -9.6564718 -23.6168875 0.7024903 -0.6990140 0.1337415
37.5385575 -9.2867552 -22.2247427 0.8681441 -0.4962348 -0.0087686
37.4838410 -8.5595977 -20.7003719 0.9292404 -0.3670708 0.0420872
37.4949621 -7.8938110 -19.1680354 0.9882048 -0.1449308 -0.0494601
37.4755016 -7.1778510 -17.5903400 1.0000000 0.0002572 -0.0000966
37.4825538 -6.4780322 -15.9900260 0.9999987 -0.0011890 0.0010699
37.4819621 -5.7537978 -14.3514872 0.9999966 -0.0019815 -0.0016709
37.4999558 -5.0362380 -12.6865853 0.9999985 -0.0016800 0.0005264
37.4865907 -4.2641669 -10.9682369 0.9999996 -0.0008816 0.0003271
37.4959827 -3.5030318 -9.2238648 0.9999988 0.0000803 0.0015727
37.4908637 -2.7063411 -7.4313685 0.9999991 -0.0013145 0.0000113
37.4870933 -1.8930407 -5.5982541 0.9999990 -0.0006149 0.0012504
37.4726663 -1.0471031 -3.7150221 0.9999992 -0.0009883 0.0008241
37.4761186 -0.2045271 -1.7995013 0.9995917 -0.0097457 0.0268613
37.4888631 0.6458803 0.1544885 0.9852072 -0.0161346 0.1706062
35.3114603 4.4369076 3.8792142 0.7075006 0.0010962 0.7067119
37.5629080 -15.3911211 -31.7586301 0.9913488 -0.0119369 -0.1307097
37.4838036 -14.7560241 -30.4504658 0.9959110 -0.0294519 -0.0854043
37.4714031 -14.1787917 -29.1287158 0.9963557 -0.0239992 -0.0818490
37.5081193 -13.6424407 -27.7929253 0.9999877 -0.0013229 -0.0047838
35.5334117 -10.9378415 -25.8770831 0.2429449 -0.8802289 0.4076455
35.1749479 -9.9303223 -24.3217184 0.2513030 -0.9240629 0.2880184
35.4155960 -9.5581179 -22.9145596 0.1120505 -0.9907424 -0.0766427
36.1272488 -9.6990108 -21.6557821 0.1395048 -0.9808053 -0.1362330
37.1304308 -10.1683876 -20.5143299 0.6847624 -0.6580584 -0.3131446
37.4859622 -9.9166923 -19.1325135 0.9555770 -0.2381512 -0.1736565
37.4900900 -9.2590161 -17.5858207 0.9905012 -0.0856895 -0.1075389
37.4894587 -8.5818991 -16.0043012 0.9999980 0.0014420 0.0013713
37.4707930 -7.8692540 -14.3799718 0.9999996 -0.0008704 -0.0000824
37.4780697 -7.1717015 -12.7330314 0.9999981 -0.0019295 0.0000236
37.5014630 -6.4780426 -11.0592271 0.9999945 -0.0032142 0.0008359
37.4777309 -5.7122985 -9.3220722 0.9999921 -0.0035539 0.0017611
37.4823916 -4.9639465 -7.5622133 0.9999956 -0.0024158 0.0017230
37.4779142 -4.1873877 -5.7568068 0.9999996 -0.0008583 -0.0002600
37.4913546 -3.4153322 -3.9219420 0.9999979 0.0017009 -0.0011048
37.4885999 -2.6049795 -2.0336897 0.9999992 0.0012646 -0.0001052
37.4787133 -1.7665289 -0.0956671 0.9967610 0.0305501 0.0743928
36.7294153 0.0450428 2.4671700 0.8503954 0.0175764 0.5258505
37.3144106 -16.8865567 -31.5313381 0.9906237 -0.0200992 -0.1351320
37.4743662 -16.5164114 -30.2808548 0.9941174 0.0181950 -0.1067687
37.4975385 -15.9996883 -28.9817870 0.9939093 0.0342938 -0.1047296
37.4890221 -15.4403548 -27.6505769 0.9999908 0.0002400 -0.0042857
33.0922636 -10.3075346 -25.0720510 -0.0223907 -0.9664291 0.2559560
33.0968900 -9.6949277 -23.5829103 0.0072628 -0.9999669 -0.0036621
33.6243209 -9.6245220 -22.2359194 0.0173090 -0.9998502 -0.0001231
34.4659175 -9.8891930 -20.9966910 -0.0089759 -0.9355288 -0.3531364
35.6770257 -10.5590219 -19.9108878 0.1942804 -0.8560118 -0.4790605
37.1614898 -11.5413693 -18.9694647 0.7895000 -0.3868013 -0.4765233
37.4962301 -11.2743751 -17.5779298 0.9726280 -0.0068264 -0.2322674
37.4801818 -10.6103457 -16.0107949 0.9998479 -0.0017116 -0.0173572
37.4821799 -9.9526203 -14.4186047 0.9999990 0.0008815 0.0010650
37.4874952 -9.2846132 -12.7941921 0.9999996 -0.0009092 -0.0001130
37.4785811 -8.5857762 -11.1271115 1.0000000 0.0000808 -0.0002484
37.4752395 -7.8781613 -9.4264058 1.0000000 0.0001937 -0.0000444
37.4719590 -7.1549880 -7.6880060 0.9999993 0.0005620 -0.0010671
37.4846691 -6.4347019 -5.9208907 0.9999936 0.0018489 -0.0030570
37.4820383 -5.6796737 -4.1041443 0.9999967 0.0014789 -0.0021070
37.4955162 -4.9270149 -2.2571684 0.9999871 0.0033322 -0.0038225
37.4963053 -4.1413301 -0.3587859 0.9992326 -0.0055242 0.0387774
37.4710980 -3.3048755 1.6041392 0.8781311 0.0347799 0.4771541
26.7763247 11.0066990 12.2850542 0.7994737 0.1387715 0.5844521
37.5245047 -18.2927848 -30.1277565 0.9996378 -0.0162299 -0.0214663
37.4836796 -17.7354726 -28.8294289 0.9996404 -0.0068187 -0.0259339
37.4866353 -17.2112205 -27.5158207 0.9999943 0.0028147 0.0018906
30.7324807 -9.8685469 -24.2826204 -0.1401774 -0.9894807 0.0357518
31.0324849 -9.5598125 -22.8434147 -0.0072528 -0.9994112 0.0335351
31.8028120 -9.7282090 -21.5441546 0.0004629 -0.9948250 -0.1016021
32.9234669 -10.2634297 -20.3776196 -0.0494056 -0.9602154 -0.2748554
34.3310811 -11.1100903 -19.3471465 0.0507703 -0.8724396 -0.4860777
37.5346207 -13.2705810 -17.5843307 0.9997316 0.0086732 -0.0214848
37.4803046 -12.5950366 -16.0213457 0.9995249 0.0215532 -0.0220340
37.4829903 -11.9676230 -14.4511478 0.9999926 0.0029974 0.0024117
37.4843092 -11.3254704 -12.8472545 0.9999949 0.0025097 -0.0019935
37.4856712 -10.6696795 -11.2092638 0.9999929 0.0034586 -0.0015257
37.4749943 -9.9861940 -9.5290936 0.9999878 0.0048837 -0.0007172
37.4857080 -9.3121929 -7.8248332 0.9999921 0.0036309 -0.0016367
37.4958085 -8.6226461 -6.0831843 0.9999971 0.0021143 -0.0011275
37.4964958 -7.9067862 -4.2969409 0.9999998 -0.0003055 -0.0006296
37.4966984 -7.1742396 -2.4701776 0.9999963 -0.0002583 -0.0027170
37.4859074 -6.4119192 -0.5937190 0.9992180 -0.0059091 0.0390956
37.5291909 -5.6971921 1.2847591 0.9236577 -0.0479319 0.3802092
26.6885949 8.3001401 11.9892337 0.7347407 0.0084364 0.6782956
37.3546246 -19.8159044 -29.9320730 0.6105965 -0.5197002 -0.5975647
37.4746872 -19.4344395 -28.6817526 0.9344107 -0.3189366 -0.1586069
37.4982381 -18.9524572 -27.3879490 0.9895033 -0.1413318 -0.0301420
37.4945897 -18.4347534 -26.0628511 0.9999899 -0.0011398 -0.0043562
29.0744820 -9.6118631 -22.1319200 -0.4562068 -0.8897433 -0.0152421
30.0422610 -9.9602737 -20.8694500 -0.2027725 -0.9320936 -0.3001414
37.5403579 -15.1792463 -17.5768233 0.9999432 -0.0030474 0.0102144
37.4927014 -14.5401395 -16.0372869 0.9999686 -0.0020012 0.0076672
37.4946629 -13.9403012 -14.4881491 0.9999819 0.0001152 0.0060109
37.4844003 -13.3149332 -12.9005446 0.9999990 0.0008126 -0.0011549
37.4986782 -12.7028934 -11.2924990 0.9999969 0.0024636 -0.0003449
37.4967028 -12.0601295 -9.6416007 0.9999984 0.0017499 -0.0002996
37.5000813 -11.4094627 -7.9584024 0.9999995 0.0000247 0.0010032
37.4903021 -10.7300145 -6.2304469 0.9999991 -0.0011642 0.0007290
37.4846076 -10.0402558 -4.4668229 0.9999978 -0.0020521 0.0004803
37.4759985 -9.3318732 -2.6617416 0.9999983 -0.0012618 -0.0013398
37.4824675 -8.6249580 -0.8267901 0.9990762 0.0009502 0.0429632
37.5152499 -7.9326438 1.0292815 0.9296343 -0.0492239 0.3651808
31.3863024 0.0333803 7.8665639 0.0081142 0.0491033 0.9987607
37.4767974 -21.1034295 -28.5401529 0.6338782 -0.6386865 -0.4362086
37.4968470 -20.6390803 -27.2598961 0.9655788 -0.2494594 -0.0736717
37.4853479 -20.1361719 -25.9474483 0.9998992 -0.0131516 -0.0053516
37.4774256 -19.6271379 -24.6107197 0.9999993 0.0009902 0.0006363
37.5273638 -19.1641177 -23.2672986 0.9999992 -0.0012167 0.0004555
37.5219737 -17.5662779 -19.0278873 0.9999524 -0.0085992 0.0046191
37.4894838 -16.9816931 -17.5449636 0.9999416 -0.0064814 0.0086468
37.4822231 -16.4108869 -16.0423987 0.9999591 -0.0062162 0.0065660
37.4773563 -15.8309303 -14.5101447 0.9999742 -0.0046536 0.0054809
37.4901594 -15.2573215 -12.9553478 0.9999953 -0.0030652 -0.0001097
37.4951208 -14.6636317 -11.3646201 0.9999929 -0.0037615 0.0001524
37.4878441 -14.0445929 -9.7337565 0.9999920 -0.0039853 0.0003733
37.4896158 -13.4220871 -8.0734752 0.9999954 -0.0023897 0.0018699
37.4834026 -12.7776544 -6.3726716 0.9999987 -0.0013136 0.0008900
37.4757145 -12.1176718 -4.6337850 0.9999988 0.0003144 0.0015448
37.4838988 -11.4607243 -2.8675528 0.9999994 0.0008352 -0.0006938
37.4995473 -10.7975549 -1.0681081 0.9992767 -0.0157124 0.0346303
37.5090335 -10.1126197 0.7754976 0.9784374 -0.0331444 0.2038669
32.6578368 -3.8801933 6.5322749 0.7156765 0.0005721 0.6984317
20.1960603 11.2555594 18.9944682 0.7132586 0.0001175 0.7009009
34.8332338 -20.8297559 -29.0730916 0.1117301 -0.7567783 -0.6440520
36.3272809 -21.6975106 -28.1249350 0.2784553 -0.7709824 -0.5727555
37.3973952 -22.1965712 -27.1090662 0.5523596 -0.7407106 -0.3824222
37.5041062 -21.8226369 -25.8427420 0.8937630 -0.4222625 -0.1512679
37.4800150 -21.3207877 -24.5166009 0.9755690 -0.2092578 0.0669045
37.4867451 -20.8382045 -23.1746524 0.9902313 -0.1393868 0.0036449
37.4814475 -20.3350750 -21.8030508 0.9994153 -0.0340693 0.0029034
37.4860042 -19.8316170 -20.4085543 0.9999966 -0.0019089 0.0017702
37.4892633 -19.3171110 -18.9865755 0.9999877 -0.0040238 0.0028960
37.4799135 -18.7802615 -17.5312991 0.9999866 -0.0037855 0.0035234
37.4781455 -18.2401784 -16.0502114 0.9999894 -0.0022373 0.0040148
37.4866958 -17.6994713 -14.5443813 0.9999988 -0.0015259 -0.0000667
37.4835084 -17.1360817 -13.0023767 0.9999986 -0.0012142 -0.0011781
37.4707467 -16.5514972 -11.4234602 0.9999983 -0.0011089 -0.0014767
37.4905143 -15.9880026 -9.8299399 0.9999996 -0.0008914 -0.0001798
37.4795747 -15.3810892 -8.1855606 1.0000000 0.0001140 0.0000878
37.4840466 -14.7774121 -6.5156875 0.9999990 0.0010408 0.0009657
37.4886597 -14.1610023 -4.8104883 0.9999998 -0.0003047 0.0004591
37.4958411 -13.5340296 -3.0705141 0.9999993 -0.0010025 -0.0006897
37.4843423 -12.8732959 -1.2793964 0.9991927 -0.0149768 0.0372784
37.4928753 -12.2197788 0.5365818 0.9773565 -0.0234733 0.2102933
34.1235614 -7.8378000 5.0663587 0.7115689 -0.0021201 0.7026131
22.5514771 5.7634300 16.6401487 0.5860932 -0.1544516 0.7953864
33.5246566 -21.3449848 -28.6283260 -0.0113724 -0.8100379 -0.5862672
34.7425998 -21.9400688 -27.6016663 0.0158806 -0.8590769 -0.5116001
35.9146612 -22.5056598 -26.5935733 0.2020033 -0.8522490 -0.4825622
36.9606665 -22.9698616 -25.5786235 0.3224494 -0.9097050 -0.2616548
37.5122370 -23.0002200 -24.4340036 0.7477030 -0.6575587 -0.0925033
37.4965520 -22.5188023 -23.1007233 0.9059258 -0.4211555 0.0438915
37.4888247 -22.0355585 -21.7444939 0.9043688 -0.3983008 0.1532106
37.4899897 -21.5512964 -20.3655263 0.9845532 -0.1571188 0.0772566
37.4863171 -21.0532285 -18.9581152 0.9944030 -0.0927024 0.0506839
37.4811244 -20.5440652 -17.5225614 0.9989449 -0.0455471 0.0058780
37.4773938 -20.0263059 -16.0593132 0.9999998 -0.0000810 0.0005923
37.4821912 -19.5064562 -14.5710924 0.9999997 0.0005001 -0.0006378
37.4780907 -18.9676130 -13.0487451 0.9999987 0.0015124 -0.0004849
37.4827929 -18.4264795 -11.5002439 0.9999994 -0.0001362 -0.0011088
37.4932933 -17.8800228 -9.9236738 0.9999998 0.0005816 -0.0001701
37.4904688 -17.3090264 -8.3070929 0.9999999 0.0003458 -0.0001534
37.4855636 -16.7240424 -6.6554003 0.9999984 -0.0011483 0.0013601
37.4875660 -16.1337728 -4.9732697 0.9999989 -0.0010802 -0.0010580
37.4812741 -15.5224203 -3.2497270 0.9999990 -0.0013775 -0.0003254
37.4833156 -14.9065831 -1.4948410 0.9995992 -0.0075778 0.0272770
37.4855663 -14.2775813 0.2979282 0.9716418 -0.1271694 0.1993492
35.5036011 -11.5276010 3.6908881 0.6961881 -0.0328270 0.7171084
24.7255825 0.7282931 14.4719361 0.6798509 -0.0152497 0.7331918
30.3457959 -20.7926560 -29.1164533 -0.1215382 -0.7313039 -0.6711357
31.9380974 -21.6621683 -28.1182064 -0.0018143 -0.8217346 -0.5698675
33.2700908 -22.3277536 -27.1016028 -0.0019448 -0.9109587 -0.4124930
34.3572760 -22.7970981 -26.0546395 0.0147250 -0.9402457 -0.3401782
35.2341502 -23.0944696 -24.9716458 0.0181135 -0.9722127 -0.2333974
36.0262208 -23.3238402 -23.8780723 0.2596819 -0.9493677 -0.1768228
36.6923542 -23.4473755 -22.7545317 0.2269215 -0.9736835 -0.0211440
37.2408493 -23.4694375 -21.5953233 0.4285891 -0.9012487 0.0637358
37.5241782 -23.2557968 -20.3352217 0.6293688 -0.7687041 0.1139689
37.5241221 -22.7833621 -18.9470282 0.9537463 -0.3005553 0.0058710
37.4791893 -22.2611432 -17.5126850 0.9596628 -0.2519747 -0.1247237
37.4848146 -21.7751424 -16.0719464 0.9775977 -0.2102657 0.0095483
37.4888400 -21.2781614 -14.6025117 0.9799270 -0.1544767 0.1260157
37.4766623 -20.7562302 -13.0959164 0.9945701 -0.0986037 0.0332798
37.4878393 -20.2459337 -11.5713921 0.9999994 -0.0004489 -0.0010023
37.4870128 -19.7139194 -10.0098344 0.9999992 -0.0011658 -0.0005837
