ply
format ascii 1.0
element vertex 756
property float x
property float y
property float z
property float nx
property float ny
property float nz
end_header
32.5431625 9.7580620 -10.5753588 0.3093802 0.3252947 0.8935700
32.7678172 10.2702566 -9.3643337 0.1087225 0.3230039 0.9401319
29.8373220 7.9144653 -10.8902228 0.2034437 0.3598184 0.9105720
29.1664562 7.6231440 -10.4213704 0.6118378 0.4368412 0.6594120
28.5828745 7.4133099 -9.8697196 -0.1039882 0.5415567 0.8342079
27.9541958 7.1654918 -9.3472623 -0.1783128 0.6270134 0.7583263
26.3993618 6.0981678 -9.5544319 0.2084067 0.5476312 0.8103498
25.8678056 5.9457772 -8.9241536 0.5070835 0.6005076 0.6182693
24.6301935 5.1748847 -8.8294885 0.3474155 0.2726845 0.8971876
23.9089119 4.8632302 -8.3202559 0.8538204 0.4629460 0.2380583
23.8398437 5.1216618 -7.3203793 -0.2502033 0.9681069 0.0129385
22.6110761 4.3748171 -7.1652251 -0.0432692 0.3005338 0.9527892
21.5418132 3.7729185 -6.8718464 -0.3595066 0.9307337 -0.0670054
20.8618174 3.5102924 -6.2888580 -0.6676127 0.7437370 0.0338905
20.7319663 3.7186313 -5.3246887 -0.7361047 0.6427402 0.2122144
21.2139572 4.4429442 -3.9623534 0.1064976 0.8311197 -0.5458006
21.6286279 5.1031593 -2.6679987 0.3402452 0.7281262 -0.5950340
19.6653255 3.7634289 -2.9032357 0.8801751 -0.0672976 0.4698541
20.6208449 4.8714713 -1.2842237 0.8485058 0.2629818 0.4592150
20.9870614 5.4793876 -0.0591345 0.5519404 0.7787989 -0.2980505
18.4923495 3.7190879 -0.5492163 0.7035769 0.3216358 -0.6336639
19.9765715 5.2451907 1.3221324 0.9483148 0.3093658 0.0706526
19.1897560 5.1975552 2.8421427 0.4418534 0.8743167 0.2008378
19.5052404 5.7479261 3.9855112 0.9561119 0.1471310 0.2533820
18.7044335 5.3937135 4.5238469 0.7833004 -0.0365280 0.6205692
18.4053227 5.4451141 5.3310185 0.8188810 -0.0767580 0.5688077
19.0077667 6.2152512 6.5877850 0.7446688 0.2137662 0.6322755
16.5784789 4.5709839 6.3410747 0.6093843 -0.2907257 0.7376512
14.2050517 2.9865706 6.1727699 0.8917704 -0.3529077 -0.2831992
12.9250859 2.2771118 6.5604062 0.0726018 0.9935695 -0.0868829
13.2974472 2.8675856 7.7148485 0.6872424 -0.2502460 0.6819640
11.8988435 2.0729565 8.0743686 0.1769229 0.3055916 0.9355811
10.5084997 1.2921842 8.4619999 0.9997419 0.0201237 -0.0105412
10.5915868 1.6557530 9.4844246 0.5358160 0.1560648 0.8297861
-19.3315818 -20.6325095 -0.2676787 0.6522508 0.5079215 0.5626586
-19.4321646 -20.3128223 1.0014767 0.1725387 0.2827629 0.9435442
-20.3767165 -20.6354223 1.9505195 -0.2653661 0.0388267 0.9633656
36.0296162 9.8115906 -14.6617120 0.9393087 0.1868852 -0.2877030
37.4782955 11.5332943 -12.1673074 0.9311149 -0.3103995 0.1915130
35.3090978 9.7582592 -13.2987757 0.4903791 -0.4500258 0.7463277
36.6449236 11.3527640 -10.9762389 -0.5169192 -0.1852850 0.8357416
34.4130177 9.8550173 -11.0749657 0.8802730 -0.1139699 0.4605760
33.6327141 9.4340892 -10.7764776 0.6044010 0.0844048 0.7921965
33.9114595 10.0072470 -9.5122588 0.7677150 -0.0327011 0.6399565
31.3285068 7.9154265 -10.7889046 -0.1232040 0.0808807 0.9890799
29.7362231 6.7619894 -11.1346688 -0.8275138 0.1217330 0.5480894
29.3997063 6.7750569 -10.3749801 0.3263644 0.5508186 0.7681700
28.7348293 6.4879221 -9.8887274 0.0863087 0.4343158 0.8966162
28.1032294 6.2341504 -9.3652324 -0.3220662 0.4379785 0.8393141
26.7604830 5.3402877 -9.4012725 0.0209044 0.2870329 0.9576926
25.1251046 4.1929312 -9.6354609 0.3004682 0.6279804 0.7178854
25.1235989 4.5189726 -8.5751029 -0.7130085 0.6913107 -0.1170826
23.9643427 3.8117026 -8.3972672 -0.5235387 0.7856202 -0.3297092
24.2972036 4.4321654 -7.0950206 0.0372336 0.9671800 -0.2513493
23.3203918 3.8933740 -6.7598129 -0.0338546 0.9950709 0.0932083
22.8904123 3.8390047 -6.0195543 0.2377877 0.9647178 0.1130332
22.7781894 4.0619677 -5.0574105 -0.1822507 0.9832393 0.0050132
22.8891371 4.7901194 -2.9329658 0.3098736 0.8285873 -0.4662846
22.0632213 4.3927106 -2.4609924 0.4510093 0.4592858 -0.7652759
20.0441088 2.9812784 -2.7334454 0.9930917 -0.0111509 -0.1168102
19.6329631 2.9491798 -1.9611231 0.3258789 0.9453735 0.0084775
19.5674528 3.2093360 -0.9779576 0.6589196 0.3092254 0.6857147
18.8736420 2.9388688 -0.3759869 0.2740519 -0.7183771 0.6393980
19.7885176 4.0162539 1.1671513 0.7064328 -0.6203156 0.3408243
19.1482881 4.3962162 3.7638445 0.8646121 -0.1689438 0.4731849
18.1285515 3.8593685 4.1968531 0.6917296 -0.6600387 0.2930172
17.4700821 3.6224756 4.8323500 0.8000558 -0.5049605 0.3239221
15.2751134 2.1404956 4.7060096 0.5892435 -0.0913986 0.8027692
13.7052769 1.1778815 4.9311166 0.5530539 -0.5836666 0.5945290
14.2104609 1.8929056 6.1726428 0.7509060 0.4272302 0.5036015
14.4863293 2.4175949 7.2858415 0.7188743 -0.4454412 0.5336683
13.9342744 2.2779480 8.0098137 0.7417125 -0.1869755 0.6441294
12.1082435 1.1298607 8.1796509 0.2716503 -0.0653044 0.9601778
10.3084302 0.0132815 8.3957635 0.5011726 -0.0849107 0.8611714
9.5223408 -0.2968738 9.0657513 0.4869151 -0.0839480 0.8694058
6.9700084 -1.9844542 9.0345335 -0.5195607 -0.0664979 0.8518419
-0.4025885 -7.4058768 7.1716727 -0.4795990 -0.3131590 0.8197050
-20.0466861 -22.2785706 0.8221718 -0.0432872 -0.1181627 0.9920503
-23.0929330 -24.2222433 1.0134345 -0.4482173 -0.1708633 0.8774434
-24.9897891 -25.2663154 1.6714989 -0.1873128 -0.6829026 -0.7060864
-26.0604232 -25.6698980 2.6450960 -0.1077439 -0.9874819 0.1151989
37.4261836 9.8321166 -14.4788495 0.7931369 -0.6078547 0.0380334
36.1300187 9.2027825 -13.7214802 0.6219328 -0.4695810 0.6266524
35.2869644 8.7027171 -13.5180135 -0.3177763 -0.0313944 0.9476458
34.8039989 9.2054795 -10.8863425 0.5950742 -0.7624796 0.2539912
31.9171530 6.7612740 -12.5218339 0.3274724 -0.9124641 0.2452980
33.9999173 9.0725684 -9.5959178 0.8760038 -0.4248862 0.2282303
31.5867002 7.1045084 -10.7236360 -0.4638935 0.1583548 0.8716229
30.9171620 6.7988004 -10.2706662 -0.4231439 0.5845477 0.6922812
30.2936233 6.5395089 -9.7678303 0.0459107 0.9659008 0.2548093
29.4567891 6.0846014 -9.4337150 0.0727729 0.9192445 0.3869027
29.4357295 6.3895754 -8.4169461 -0.1074736 0.9923774 0.0603033
25.8027463 4.6881278 -6.0949823 -0.1172154 0.9815471 0.1510819
22.7911443 3.2979866 -4.1054959 0.2645027 0.8196067 0.5082157
22.6055968 3.4572702 -3.2023850 0.8888506 0.4468108 -0.1015125
22.8401286 3.9816017 -2.0313952 0.3756188 0.1770594 0.9097035
21.4799780 3.1156836 -1.8915700 0.1847449 0.1864118 0.9649456
20.2390988 2.3616536 -1.6494237 0.6689798 0.7307987 -0.1356441
16.7497254 -0.3175530 -2.7494592 0.3472373 0.9020746 0.2562960
16.9123477 0.1537504 -1.5941749 0.5194261 0.8242828 -0.2252874
15.1682914 -1.0022124 -1.5603187 0.0275849 0.6271253 0.7784298
17.3073458 1.1412769 0.7108547 0.8313365 -0.2945424 0.4713007
16.5769421 0.8459089 1.3265168 0.7864875 0.4816088 0.3866398
16.3914093 1.0102479 2.2457071 0.8038546 0.5932419 0.0433814
16.5369451 1.4491450 3.3341416 0.9096874 0.4143046 -0.0286464
17.3015049 2.3975964 4.7268910 0.9250647 -0.3771451 -0.0449088
14.5890889 0.4646022 4.3486915 0.0512300 -0.1249330 0.9908417
15.2574091 1.3295101 5.6803525 0.7531289 0.3442113 0.5606384
14.7057451 1.1880186 6.4053799 0.6048454 0.1514869 0.7818016
13.4325656 0.4604707 6.8007698 0.6027187 -0.0258979 0.7975334
13.2137509 0.5941824 7.6933021 0.8700733 0.1002474 0.4826209
11.0523020 -0.8398969 7.7305823 0.5308943 -0.3004652 0.7923837
10.1020928 -1.2882809 8.3271564 0.7201653 -0.2222490 0.6572422
8.9115575 -1.9244016 8.8377381 0.5985695 0.0575803 0.7989988
6.2207497 -3.7473079 8.7643022 -0.9592669 0.2673626 -0.0912370
0.9395664 -7.6029719 7.7346030 -0.0373979 0.2114578 0.9766714
-21.4109372 -24.4488957 1.6930479 0.5420927 -0.4836451 0.6871848
-21.4359074 -24.0540333 3.0046052 0.9388681 0.0096071 0.3441430
-23.6273628 -25.3456997 3.5596825 -0.9141811 0.3014255 0.2709532
34.9298057 7.6350882 -13.0181515 0.7155961 -0.6583306 0.2335016
33.9368985 6.9891883 -12.9249078 0.6319730 -0.6610107 0.4045676
32.7801633 6.1901490 -12.9621472 0.3858579 0.8834623 0.2657218
32.9610810 7.0356944 -10.6991786 0.0792371 0.9783135 0.1913744
31.7160570 6.1648230 -10.7732306 -0.1753216 0.4153743 0.8925954
32.0147847 6.7825186 -9.4751097 -0.6119521 0.5228772 0.5933920
31.3247202 6.7776840 -8.0193125 0.1964961 0.7321972 0.6521324
29.9118191 5.7692276 -8.1664933 -0.1139140 0.9270401 0.3572397
29.3487151 5.5680496 -7.5963571 -0.2876296 0.8233456 0.4892557
29.0704226 5.6344726 -6.7950836 -0.3441576 0.9242631 0.1652065
27.8176052 4.7969439 -6.7480795 -0.4871706 0.8692226 0.0843623
28.5101799 5.7618019 -5.2020205 -0.0158311 -0.2836160 0.9588072
27.2587183 4.9338010 -5.1280610 -0.1769672 0.9128967 -0.3678345
26.6409174 4.6925411 -4.5668870 -0.4663681 0.6130134 -0.6377424
25.2590715 3.7606877 -4.5403115 0.6342375 0.7729217 -0.0182984
24.6295391 3.5175632 -3.9599714 0.4815310 0.7843784 0.3909967
23.1653666 2.5277295 -3.9395274 0.5899081 0.7283808 0.3485252
23.4198171 3.0829830 -2.7426209 -0.1730922 -0.0390415 0.9841315
21.7295086 1.9047734 -2.8302203 0.1097580 -0.7559412 0.6453729
21.9209568 2.4018296 -1.6813172 0.7208072 -0.0223267 0.6927759
18.0911413 -0.6419912 -3.0522426 0.1029433 0.7468165 0.6570143
17.0178661 -1.2433596 -2.6481949 0.7693039 0.4383817 -0.4647504
17.1623116 -0.7787928 -1.5008714 -0.2016896 0.8345621 0.5126669
17.7598166 0.0733971 -0.1050868 0.9163188 -0.3128755 0.2499375
15.4561941 -1.5825373 -0.3817864 0.8201296 -0.5490470 0.1610430
17.4880261 0.4947473 1.7941123 0.8276404 0.5434524 0.1402528
15.6780838 -0.7256847 1.8292651 0.7652479 -0.6433836 0.0212901
16.5328248 0.3276864 3.3069122 0.9136816 0.2650643 0.3081022
16.7877116 0.8640411 4.4436896 0.9831116 -0.0549817 0.1745523
16.7914412 1.1840492 5.4381430 0.5627337 -0.0359050 0.8258581
15.4424667 0.3696120 5.7624480 0.7081000 0.1854412 0.6813266
14.9105605 0.2431157 6.5000180 0.6089998 0.0077650 0.7931323
13.3094968 -0.7676896 6.7465669 0.2526991 -0.2019540 0.9462335
10.0297499 -2.4985399 8.3159044 0.8091526 0.2727894 0.5204403
9.4205910 -2.6712019 9.0735355 0.5702326 0.1820362 0.8010603
8.3680687 -3.2007822 9.6582178 -0.1035930 0.5840017 0.8051152
2.2144485 -7.8312661 8.2706005 0.5289655 0.4872469 0.6948280
0.0344658 -9.2350099 8.5203199 -0.1205444 0.2723431 0.9546194
-16.3995903 -21.9919900 3.5907863 0.1017633 0.8778863 0.4679315
-21.2521725 -25.4383873 3.1389468 -0.7611447 -0.5865204 0.2768618
-21.0405318 -24.8519944 4.5246486 -0.4648541 0.2586743 0.8467575
35.1091915 7.0959082 -11.9920776 0.2163449 -0.8803766 -0.4220568
33.3892332 5.7158008 -12.5756495 0.9416996 0.2480768 0.2272880
33.7287920 6.3946230 -11.2091215 0.8491899 0.3550194 -0.3909446
33.7168813 6.7190294 -10.1847720 0.8849747 0.3539146 0.3025959
32.1800801 5.5441324 -10.5268464 0.5193895 0.8253916 0.2212762
32.9696110 6.6513132 -8.8004129 0.3680278 0.7431821 0.5587806
31.7279131 5.7761475 -8.8485519 -0.0976105 0.9459623 0.3092369
31.5916750 5.9768681 -7.9400576 0.4035366 0.5861410 0.7025645
30.8738013 5.6175216 -7.5163922 0.0597086 0.6280993 0.7758390
30.3039121 5.4032814 -6.9613375 0.3681370 0.8875515 0.2769971
29.2871853 4.7675179 -6.7518214 0.0703762 0.6026683 0.7948824
29.4465805 5.2482688 -5.6111879 0.6050400 0.6825764 0.4098975
27.9588783 4.1783026 -5.7348034 0.9685104 0.0361960 0.2463281
27.5646668 4.1403837 -5.0112678 0.7925660 0.5082526 0.3369249
27.0809263 4.0197640 -4.3515571 0.6497484 -0.0243878 0.7597580
25.4101191 2.8043820 -4.5326525 -0.1378885 0.2935796 0.9459375
24.2629783 2.0828345 -4.3093049 0.2969596 0.4818252 0.8244146
24.4090588 2.5503677 -3.1809917 0.2966487 0.2351546 0.9255819
22.5051105 1.1499362 -3.4349555 -0.3790385 0.3315402 0.8639508
17.8370562 -2.7347891 -5.4469635 -0.2366236 0.9650229 -0.1128720
17.1506824 -2.9982110 -4.7950575 0.3874651 0.8483764 -0.3607329
17.8492708 -1.3301624 -1.1476623 0.6414589 -0.3112429 -0.7011835
16.0418891 -2.5830577 -1.1531520 0.5345504 0.3953348 0.7469714
15.5616472 -2.6598858 -0.3660490 0.7300806 0.5702072 0.3766246
17.6604618 -0.4864797 1.8527974 0.8136629 0.5796962 -0.0436462
17.3265201 -0.4460738 2.6890514 0.7605837 0.6182216 0.1982788
17.2053228 -0.2223635 3.6362777 0.8096268 0.2547750 0.5287666
15.8730736 -1.0414422 3.9538693 0.5550416 0.1938958 0.8089087
16.2977071 -0.3503226 5.1769200 0.6771539 0.2307163 0.6987364
15.3267394 -0.8533548 5.6976218 0.8627737 0.4690940 -0.1886067
14.0513172 -1.6092333 6.0886965 0.2529946 -0.0737708 0.9646510
10.0379756 -4.3252647 6.2799213 0.9737435 0.0877543 0.2100542
10.7612607 -3.3857761 7.6311817 0.6270215 -0.2137757 0.7490955
10.2980712 -3.4405471 8.4498572 0.8785364 0.1894723 0.4384906
9.5650058 -3.7178333 9.1585977 0.5732695 0.1836841 0.7985125
8.6133705 -4.1722657 9.7877463 -0.8860275 0.3570336 -0.2957740
1.5645082 -9.6138177 8.0566530 0.4580808 0.8330225 0.3102185
1.6073328 -9.2259804 9.1596553 0.2227146 0.3694913 0.9021499
-17.9282822 -24.2993603 4.3855455 -0.8023227 0.4804681 0.3541592
-20.4035168 -25.8719707 4.8191359 0.1713154 -0.5130212 0.8411066
35.3445797 6.6168581 -10.9169849 0.8031152 0.5133566 0.3024416
33.4773484 5.0699257 -11.6200920 0.7841642 0.4104600 0.4654129
34.1506947 6.0920751 -9.9608666 0.3176581 0.7784094 0.5414538
33.5340830 5.8145281 -9.4867638 -0.1666600 0.2771046 0.9462756
33.1882889 5.8090107 -8.7663730 0.4781244 0.1654903 0.8625601
31.9959700 4.9678051 -8.7715540 0.5310234 0.7712209 0.3510449
32.2520553 5.5579826 -7.5306788 0.6402928 0.6316283 0.4371164
31.3079416 4.9698626 -7.2987239 -0.1287090 0.9384411 0.3205656
30.6993557 4.7140106 -6.7760476 -0.3855086 0.8449191 0.3708031
30.6391697 4.9904672 -5.8107901 0.8044053 0.3390256 0.4878460
30.2990753 4.9951188 -5.0717625 0.4854571 0.7955725 0.3624856
28.1216104 3.2450378 -5.7286029 0.9513017 -0.3066811 0.0311743
27.2200656 2.7258204 -5.3787875 0.8636985 -0.2995563 0.4053283
26.9324042 2.7921366 -4.5648382 0.4856771 -0.3358841 0.8070314
26.1047946 2.3503864 -4.1380928 0.5422073 0.0617313 0.8379740
25.3334668 1.9659499 -3.6578021 -0.0044763 0.9448128 0.3275800
25.3687564 2.3354788 -2.6142864 0.6677125 -0.0222881 0.7440855
19.4716046 -2.7849994 -5.5460319 -0.5133850 0.8287361 0.2227829
18.2229395 -3.5755374 -5.2777106 0.3288048 0.9151711 -0.2331292
17.8290353 -3.5756224 -4.4383220 0.3411403 0.8926889 0.2944992
17.5203884 -3.4980922 -3.5456898 0.0194257 0.7971068 0.6035257
19.4836407 -0.6804245 0.7998562 0.6643616 0.2430957 0.7067730
19.2742538 -0.5306811 1.6995294 0.7077638 0.7044472 0.0531458
18.6037653 -0.7915944 2.3388344 0.4460556 0.8949155 0.0126756
17.9648024 -1.0220472 3.0031578 0.6833346 0.7100193 0.1700777
17.4380571 -1.1516161 3.7337013 0.2045516 0.4916462 0.8464293
17.1375996 -1.0821089 4.5845875 0.6620965 0.2011092 0.7219302
15.9170677 -1.8134800 4.9720661 0.7641825 0.6097996 0.2101658
16.0938127 -1.3284175 6.0638303 0.6779600 0.0232288 0.7347317
14.6975428 -2.2027292 6.3931635 0.2583568 -0.0456849 0.9649687
12.2726132 -3.9499943 6.2723435 -0.4318182 -0.0647804 0.8996313
11.6390939 -4.1525891 7.0094025 0.7103793 -0.2513500 0.6574074
10.2454063 -4.9983351 7.4197131 0.8523510 0.3325633 0.4036080
10.5487314 -4.4027087 8.5763882 0.9790750 0.0988594 0.1778734
8.6618101 -5.6537095 8.8111773 -0.3128091 -0.8584001 0.4065707
8.8450433 -5.1610969 9.9119690 0.1543895 -0.6062797 0.7801210
1.8073419 -10.6847439 8.1908357 0.4523347 -0.3146680 0.8344923
2.0324221 -10.1383312 9.3653046 0.2400335 0.8951010 0.3757367
-15.8675228 -24.5445278 3.9064423 -0.8297169 -0.2030637 0.5199374
-17.9366075 -25.8214325 4.4511072 -0.0917897 -0.9925097 0.0806173
-19.6134991 -26.7660120 5.1658795 0.5192746 -0.2717739 -0.8102425
34.5913720 4.4178508 -12.8737881 0.8168222 0.3536326 -0.4557910
34.5934834 4.7761303 -11.8117769 0.7823759 0.2313858 0.5782288
35.0699977 5.6180602 -10.3212918 0.6928595 0.2812769 0.6639496
35.0776767 5.9709767 -9.2871125 0.3633370 0.4262104 0.8284509
33.6104212 4.8206307 -9.5838151 0.3501637 0.1740321 0.9203794
33.2237312 4.7754938 -8.8939084 0.5304866 0.5397174 0.6536736
32.8620007 4.7559516 -8.1810165 0.7084605 0.3121957 0.6329435
32.3254138 4.5619005 -7.6148714 0.8728280 0.1959373 0.4469673
32.5841284 5.1602925 -6.3850785 -0.0289639 0.9096684 0.4143241
31.3148968 4.2422020 -6.4125194 0.8798369 0.4751565 0.0106505
30.1753850 3.4617602 -6.3067243 0.8374708 0.5352240 -0.1103535
30.1393646 3.7682948 -5.3174635 0.9345542 -0.1611508 0.3172363
29.8788452 3.8532825 -4.5091525 0.7631217 0.0539036 0.6440029
28.7600602 3.1077626 -4.3435847 0.0071532 0.3786006 0.9255325
27.7565888 2.4811841 -4.0697590 0.0498120 0.4593399 0.8868628
26.4233174 1.5460269 -4.0114966 0.3883457 0.2755504 0.8793518
26.0426553 1.5268552 -3.2571468 -0.6704285 -0.5479771 0.5002468
22.2523757 -1.7174243 -4.8352289 0.2239097 0.9734100 0.0483470
21.1395378 -2.4079914 -4.5187564 -0.2717500 0.4038479 0.8735324
19.2101950 -3.8554786 -4.7149918 -0.1133807 0.6819083 0.7225966
19.4062102 -3.3089668 -3.5059834 0.1668433 0.8291724 0.5335133
17.1682022 -4.6562029 -2.7458444 0.3671282 0.9069692 0.2064552
18.3534384 -3.2073115 -0.9592921 0.3536771 0.5409137 -0.7631021
17.8896561 -3.2770372 -0.1782505 0.5719754 0.7566395 -0.3167662
18.5747884 -2.3037368 1.2586028 0.7202867 -0.0617081 -0.6909263
17.0193091 -3.3627139 1.4219418 0.2421923 0.9611255 -0.1325923
18.9921504 -1.2424496 3.5281512 0.7232552 0.6477996 0.2392855
18.7519276 -1.1209240 4.4019625 0.4747907 0.5326851 0.7005857
17.0291301 -2.3186481 4.5089399 0.3547131 0.0815126 0.9314152
16.7032568 -2.2687294 5.3521672 0.7412382 0.4703738 0.4788679
15.8481693 -2.6851134 5.9353964 0.5037385 0.1507669 0.8505980
14.9131105 -3.1674244 6.4928433 0.3499225 0.2228408 0.9098880
11.1841777 -6.0799396 5.7715771 -0.6241126 0.7090360 0.3282551
11.4274957 -5.5189546 6.9228380 0.8593727 0.2330330 0.4551638
9.3406462 -6.9744694 7.0384478 0.3076722 0.5295231 -0.7905334
9.3194143 -6.6417984 8.0739874 0.2048008 0.7631287 -0.6129366
9.6478423 -6.0134738 9.2442815 0.4089719 0.6702641 0.6192641
8.2923339 -6.8235687 9.7222249 0.0050182 0.0324465 0.9994609
7.9432297 -6.7739472 10.6140863 0.1677475 0.1746330 0.9702392
-8.2026524 -20.0341087 5.5583276 -0.3024543 0.7095069 0.6364914
-12.2529867 -23.0261202 5.2855194 -0.6769266 -0.0773507 0.7319749
-15.6208319 -25.4203518 5.3373648 -0.7288589 0.5430322 -0.4169901
-14.1876547 -23.8039905 7.0939241 0.0724930 0.5004306 0.8627363
35.9092674 5.0693085 -10.7496208 0.9395541 -0.2714435 0.2087022
34.1232675 3.5524488 -11.3826911 0.8337097 -0.2468700 0.4939468
35.0109387 4.8355497 -9.5189958 0.5813608 0.0682518 0.8107782
33.5072490 3.6296398 -9.8436351 0.9482913 0.3102804 0.0668551
32.7633095 3.5742272 -8.4200562 0.6399712 0.1140467 0.7598883
32.6817566 3.8423549 -7.4613628 0.5101457 0.2584353 0.8203429
31.8004457 3.2986691 -7.1742219 0.7750404 -0.2733035 0.5697522
30.9710296 2.8132699 -6.8270849 0.4706192 0.0343740 0.8816666
31.7678528 3.9595375 -5.1702723 0.2084384 0.4532411 0.8666752
30.6416478 3.1807135 -5.0494049 0.2246419 0.3984670 0.8892469
29.4406697 2.3365352 -4.9604544 0.2435732 -0.6077369 0.7558624
27.8720802 1.4910004 -4.0918740 0.3325460 -0.0311001 0.9425741
26.2997492 0.3084608 -4.2017891 0.5627796 0.0125830 0.8265112
23.5812073 -1.9704051 -5.0775752 -0.0785687 -0.1196691 0.9897001
23.2240714 -1.9521305 -4.2628116 0.2348897 0.0241685 0.9717215
21.8392676 -2.9178191 -4.1376994 -0.2379030 0.5957953 0.7670920
19.6209486 -4.6669182 -4.5290428 -0.1567500 0.7124374 0.6840046
19.2069350 -4.6885570 -3.7098723 0.0921600 0.7864892 0.6106892
18.1212149 -5.3428412 -3.3107532 0.2509740 0.5430270 0.8013325
17.8930913 -5.1864923 -2.3668250 0.9688104 0.1440771 0.2016139
20.6624850 -2.2369308 0.3638054 0.9935897 0.0347450 -0.1075748
17.5523457 -4.7715141 -0.4257800 0.9217921 0.3048966 -0.2394522
18.9103913 -2.8054483 2.4344200 0.6450017 0.6679792 -0.3711826
19.3330604 -2.0715914 3.6815829 0.3426390 0.0123351 0.9393862
18.3713061 -2.6032695 4.1753454 0.4277103 -0.0399439 0.9030329
17.3844337 -3.1522948 4.6718716 0.6086325 0.3167072 0.7275047
15.5289648 -4.4772223 4.7486997 -0.3230675 -0.7238779 0.6096132
15.6389220 -4.0295953 5.8245955 0.9123251 0.2785229 0.3001465
13.0243530 -6.0131167 5.5917044 -0.0222440 0.5790737 0.8149717
12.2102106 -6.3813358 6.2492900 0.2022379 0.3954216 0.8959585
10.6862956 -7.3718956 6.5981289 0.5159566 0.1068229 0.8499280
11.3780717 -6.4082558 7.9442774 0.8043718 0.1257469 0.5806667
10.5924978 -6.7442178 8.6353883 0.8566815 0.2250577 0.4641614
10.6430629 -6.3502386 9.6808482 0.7002859 0.2419643 0.6716047
9.2058009 -7.2468836 10.1198821 0.3624256 0.5098677 0.7801811
-7.1032707 -20.9357859 4.8145421 0.4342628 0.7554096 0.4906854
-9.0711384 -22.2086899 5.2832408 0.4594625 0.3022422 -0.8351909
-8.5954413 -21.3862017 6.6768084 0.0624288 0.5225779 0.8503029
-11.7098444 -23.6177841 6.7832465 -0.7398067 0.2917966 0.6062514
-13.8564443 -25.0110038 7.2807464 -0.6985601 0.2682670 0.6633601
35.4187755 3.4615157 -11.4038963 0.5198946 -0.0568916 0.8523338
34.4258980 2.7680736 -11.2836690 0.9685026 0.1206280 0.2178340
34.0719395 2.7594893 -10.5538827 0.9905732 0.0790788 -0.1118535
34.4995911 3.5740868 -9.1205084 0.5900098 0.7111393 -0.3823211
34.0241723 3.4337793 -8.5110047 0.6543406 0.0333880 0.7554625
33.2374538 2.9710322 -8.1661315 0.5741782 0.4248011 0.6999024
34.4904689 4.6247311 -6.0766067 0.1465762 -0.8352877 0.5299150
30.7433115 1.1137693 -8.1960634 -0.3570822 0.0250292 0.9337376
30.7650394 1.8583272 -6.0990432 0.7828514 -0.6023274 0.1560301
29.7575733 1.1939201 -5.8641370 0.2508567 -0.8679694 0.4286024
27.7760912 -0.4432453 -6.3532673 -0.3074708 0.6758397 0.6698525
27.5956462 -0.2599839 -5.4410819 0.1798046 -0.7261354 0.6636247
26.3596071 -1.1292959 -5.3088030 -0.1208590 0.8046302 -0.5813462
23.1093870 -3.9827416 -6.5947601 -0.4287598 0.9014558 -0.0595181
24.0021121 -2.7267906 -4.8822259 0.0220293 0.5167445 0.8558562
23.7133720 -2.6411847 -4.0203166 0.5726053 0.5400383 0.6168320
22.1161982 -3.8307047 -4.0400156 -0.1822014 0.5214410 0.8336078
20.8233742 -4.7127054 -3.8232203 0.0240544 0.6612370 0.7497913
20.4193008 -4.7290292 -3.0088885 0.3473441 0.8104763 0.4716781
19.6459797 -5.0990641 -2.4256855 -0.1133885 0.9878821 0.1059813
19.6348176 -4.7386018 -1.3642410 0.7644200 0.3639458 0.5321705
19.7422475 -4.2694441 -0.2426888 0.6724503 0.7273890 -0.1368058
20.4215392 -2.5576414 3.2370459 0.7972405 0.4630880 -0.3872430
19.7748368 -2.8098077 3.8896532 0.3020801 -0.3403956 0.8904372
18.5563433 -3.5878407 4.2472944 0.7072493 0.1369516 0.6935724
17.1394509 -4.5404050 4.5254244 -0.0063796 -0.2230429 0.9747878
17.5663377 -3.7965702 5.7567265 0.8120644 0.2018052 0.5475637
15.7467018 -5.1051171 5.8685885 0.6865550 -0.3935908 0.6113334
14.5928852 -5.7975483 6.3347834 -0.2519112 -0.0395120 0.9669434
11.4141057 -8.3079957 5.8839222 0.7744459 -0.1294561 0.6192533
11.0267910 -8.2903709 6.7602577 0.8514314 0.2399036 0.4663805
9.7584119 -9.0591186 7.2509640 0.3075337 0.8716849 0.3815605
10.9972730 -7.5940130 8.8277619 0.9610008 0.1384617 0.2393865
9.4700058 -8.5874203 9.2235936 0.5722821 -0.5162732 0.6371462
9.9075865 -7.8434184 10.4325816 0.5262797 0.4921642 0.6934004
-8.5156348 -23.6115757 4.3122104 0.1782129 -0.8763679 0.4474589
-9.6763051 -23.7657231 6.3425555 -0.5070268 -0.7778057 -0.3714056
-11.6905472 -25.0785825 6.8568256 0.2881794 0.0200882 0.9573657
-12.2288839 -25.1119205 7.9083747 -0.2645159 -0.0399392 0.9635539
34.8446603 2.4788306 -10.0210527 0.9991074 -0.0421586 -0.0026500
35.5221939 3.5732928 -8.3666209 0.5739043 -0.2172160 0.7895892
33.4999395 1.7784203 -9.1376618 0.5516014 -0.6721208 0.4939530
32.7972942 1.4022077 -8.7050437 0.4981093 -0.7377922 0.4555763
33.3718081 2.3754795 -7.1741314 0.6445772 0.2191641 0.7324530
32.5306616 1.8551133 -6.8544149 0.3227908 -0.2247334 0.9194025
30.8871020 0.5051317 -7.1730979 0.4757536 -0.5764555 0.6643474
29.2630014 -0.8094448 -7.4330199 0.4078780 0.7539380 0.5149884
29.2431800 -0.4575308 -6.3944230 0.2986680 -0.2541903 0.9198830
28.2226928 -1.1340475 -6.1345200 0.3120640 -0.5560651 0.7703296
27.8939119 -1.0988008 -5.3338996 -0.2277386 0.7677340 0.5989321
26.8326109 -1.8056208 -5.0727932 0.6493845 0.5090939 0.5649099
25.3373372 -2.9416547 -5.1018293 -0.1927449 0.4941921 0.8477167
25.7162785 -2.1883699 -3.7768661 -0.8900590 0.0586866 0.4520518
23.8067981 -3.7225175 -4.0501266 0.1365999 0.6466248 0.7504778
23.6523438 -3.5015401 -3.0952565 -0.0415924 0.6822253 0.7299580
22.0033559 -4.7554689 -3.1304221 -0.1576531 0.4823094 0.8616978
20.7462398 -5.6119467 -2.8756304 0.1636601 0.9091447 0.3829770
19.1177652 -6.8213087 -2.8283436 0.2088575 -0.2492487 -0.9456498
20.1500345 -5.4379220 -1.1120574 0.8071798 -0.5870383 -0.0620223
18.4870792 -6.6687250 -1.0519756 0.8464433 0.3337406 -0.4149107
17.9323247 -6.8233419 -0.3072157 0.8317281 0.2713163 -0.4843716
19.2352732 -5.2032066 1.5023780 0.9544942 0.1995367 -0.2216437
20.6165933 -3.5254473 3.3080609 0.9945271 -0.0204070 0.1024667
19.0412064 -4.6580072 3.4596295 0.4735666 0.5646810 0.6759217
18.9688316 -4.3664283 4.4394275 0.5078328 0.3734814 0.7762844
18.0593587 -4.8605098 4.9792067 0.6189656 0.0053239 0.7854001
16.1768310 -6.2547584 5.0445784 -0.0431115 -0.7672526 0.6398944
14.9213351 -7.0545709 5.4563482 0.5056241 0.2490357 0.8260299
13.2563470 -8.2234445 5.6960990 0.3664711 -0.7262370 0.5816173
11.6699966 -9.3085716 6.0053299 0.9643786 0.0081004 0.2644018
11.3592796 -9.2198611 6.9188130 0.9260351 0.2281226 0.3006975
12.9899859 -7.3707321 8.6780895 0.7307666 0.2380459 0.6397768
10.3401666 -9.4040671 8.5696261 0.9786393 0.1291749 -0.1599342
10.9275031 -8.5094508 9.8505147 0.8628665 -0.0793934 0.4991574
9.3591943 -9.5505827 10.2458486 0.3889919 0.3227848 0.8628414
-6.9547327 -23.2685555 6.1820202 0.4333814 0.7973537 0.4200091
-8.4022083 -24.1172374 6.8646540 0.9909543 0.1262463 -0.0455138
-9.9418233 -25.0385868 7.5379545 0.2477982 0.0092605 0.9687674
-8.1764947 -23.0670942 9.3567084 -0.6285455 0.7776194 0.0154478
33.8062016 0.2255133 -11.1587214 0.9381897 -0.2234093 0.2643642
34.5362028 1.4057645 -9.4280426 0.7829806 -0.6162693 0.0845778
33.4652332 0.6194802 -9.3347992 0.6647979 0.1799028 0.7250370
33.8336745 1.3939574 -7.9634138 0.9442549 0.3212425 0.0720138
33.1962987 1.0815277 -7.4748342 0.7468801 -0.2486617 0.6167151
32.1285276 0.3140881 -7.3359306 0.1779859 0.3862679 0.9050514
31.2255016 -0.2700328 -7.0376934 -0.0802612 0.2142330 0.9734795
30.0766582 -1.1064585 -6.9180876 0.2152269 0.7822066 0.5846625
29.6792566 -1.1463144 -6.1819766 0.2482898 0.7176062 0.6506869
28.5264647 -1.9725169 -6.0254849 -0.0450708 0.9177937 0.3944912
28.4576246 -1.6667763 -5.0273227 0.4420178 0.7699505 0.4602135
28.0813316 -1.6811095 -4.2651316 0.1617298 0.4445049 0.8810555
26.4280311 -3.0033139 -4.4230160 0.2002666 0.5681040 0.7982175
26.2698510 -2.7879557 -3.4861123 0.6795651 0.0090732 0.7335591
24.3673694 -4.3420830 -3.7586984 0.1550540 0.8143381 0.5592958
24.3463888 -3.9835459 -2.7155263 0.0966036 0.8157489 0.5702819
22.6368356 -5.3210479 -2.7961028 -0.3393726 0.2374429 0.9101907
22.3044158 -5.2715223 -1.9495989 -0.3256825 0.3625568 0.8732030
18.6870105 -8.0856288 -2.0754291 0.7798815 0.0649205 -0.6225513
21.2346022 -5.1972615 0.5376160 0.6438249 0.4298273 -0.6330387
19.2570627 -6.7546191 0.4160276 0.8778621 0.2416119 -0.4134996
20.2271862 -5.0650752 3.0531341 0.6799359 0.4489264 0.5797864
19.9718170 -4.9446647 3.9327968 0.5967450 0.1855276 0.7806888
18.9584049 -5.5498745 4.4076045 0.6099401 -0.0428720 0.7912870
16.8306481 -7.2082615 4.3248739 0.5210377 0.2333482 0.8210167
15.2497726 -7.9575807 5.6079724 -0.0056671 -0.5912722 0.8064521
13.3063307 -9.4060777 5.7168550 0.4340838 0.1965125 0.8791781
11.5883216 -10.6300001 5.9705984 0.6006705 -0.4134373 0.6842986
10.4495028 -11.3048229 6.5188654 0.5677969 -0.7879269 0.2382811
12.0549721 -9.4419233 8.2844279 0.8017511 0.3066454 0.5129949
10.3200746 -10.6629730 8.5821703 0.8495830 0.4844064 -0.2087082
10.2454007 -10.3558902 9.5965055 0.6226451 0.7376404 0.2611508
9.5204661 -10.6427158 10.3430275 -0.3015376 0.5380622 0.7871239
-5.9722241 -23.8447803 6.6022891 0.3226525 0.9449180 0.0550030
-8.9911546 -26.1165503 6.7110423 0.6110540 -0.7863186 -0.0911925
-8.2731245 -25.0360250 8.1895233 -0.5836470 0.7411037 0.3318456
-7.1435492 -23.6008304 9.7784338 -0.0924887 0.9247138 0.3692562
33.5054459 -1.6597810 -12.7180090 0.7832822 -0.2010052 -0.5882736
33.5707564 -0.0153529 -8.3525732 0.8491832 0.1856425 0.4943933
33.2806397 0.0496269 -7.5561586 0.7690651 0.0241107 0.6387155
32.3823097 -0.5455141 -7.2715740 0.2291658 -0.2767194 0.9332253
31.0403714 -1.6119513 -7.3324357 0.3985894 0.5976147 0.6956890
30.3849655 -1.9304253 -6.8077819 0.3036000 0.8582528 0.4137985
30.2247866 -1.7175628 -5.8832414 0.2588870 0.8688021 0.4220905
29.3553442 -2.2586186 -5.5120756 0.0530349 0.8372019 0.5443164
27.5511081 -3.7784812 -5.8295908 0.6274131 0.1668601 0.7605988
27.7337380 -3.1996882 -4.6333723 -0.0019314 -0.1641448 0.9864344
26.7375285 -3.8555358 -4.3064440 0.4365257 0.2863287 0.8529133
26.0437609 -4.1907622 -3.7459092 0.5833236 0.3577680 0.7292020
25.6507555 -4.2123926 -2.9674322 0.0062798 0.8919548 0.4520809
25.0204019 -4.4770111 -2.3486514 -0.2180981 0.6862836 0.6938646
22.7804869 -6.3791822 -2.7847479 -0.4385163 -0.2973194 0.8481183
22.8010901 -5.9693517 -1.7059994 -0.4017649 0.0777915 0.9124327
21.0310529 -7.3692638 -1.7678278 0.6451156 -0.0280822 0.7635688
20.7787543 -5.7074652 3.3222073 0.6481828 -0.0562395 0.7594051
19.9335197 -6.1617203 3.8795486 0.6050960 -0.1710642 0.7775576
18.8133545 -6.8783754 4.3041284 0.2274740 -0.0357278 0.9731285
17.4421572 -7.8302667 4.6194158 0.5440328 0.2966940 0.7848573
16.6747178 -8.1918098 5.2648988 0.5351735 0.1533233 0.8307113
14.5887817 -9.8110338 5.2756700 -0.0224036 0.5059459 0.8622742
13.9272080 -10.0580646 6.0091783 0.1046401 0.8094857 0.5777398
13.3420297 -10.2302497 6.7848702 0.1998536 0.8757149 0.4395248
11.9511574 -10.7761821 8.2541571 0.1061322 0.5607731 0.8211392
11.3973087 -10.9129890 9.0599798 0.8226089 0.5001659 0.2704599
10.7818601 -11.1056170 9.8441953 0.7095227 0.6213036 0.3325047
10.4830851 -11.0038534 10.7598296 0.4979151 0.4919205 0.7142092
-5.5051649 -25.3232946 5.6145222 0.9944177 0.0921747 -0.0513536
-4.9757838 -24.3956200 7.0273120 -0.8894924 0.1878817 0.4165378
-5.5248304 -24.4585114 8.0253784 0.7115470 0.6455359 -0.2774603
-5.4586821 -23.9635758 9.2401749 0.3461693 0.8695805 -0.3521314
-5.5093269 -23.5786837 10.4024807 0.3135447 0.7811281 0.5399339
35.0883267 -1.0315106 -11.4132883 0.8665200 -0.0417230 0.4973956
32.3638503 -3.7273955 -12.8708059 0.8367283 0.3324376 -0.4351677
34.9788828 0.0290458 -8.3219554 0.8321510 0.1394338 0.5367336
33.0817756 -1.7021031 -8.9432724 0.2091902 -0.9169346 0.3398094
33.0220656 -1.3745676 -7.9333349 0.8005916 0.5315795 0.2765434
32.5987576 -1.4518697 -7.2393295 0.0750203 0.0205300 0.9969706
31.5540292 -2.2096787 -7.0545699 0.2882082 0.3215749 0.9019565
31.9708150 -1.3654021 -5.6677899 0.2404618 0.3872084 0.8900830
31.0457328 -1.9853308 -5.3665013 0.9531723 0.2205351 0.2069467
30.6233689 -2.0563743 -4.6576422 -0.6266102 0.7636988 -0.1553185
29.5304755 -2.8452050 -4.4538132 0.1333429 0.3290351 0.9348559
28.2037480 -3.8743325 -4.3991075 0.1456072 -0.0520384 0.9879729
28.7600781 -2.8965056 -2.9498818 -0.1172494 0.6102768 0.7834633
27.0108615 -4.3590892 -3.1626986 0.6456518 0.7523886 -0.1305573
26.8210800 -4.1712853 -2.2520568 0.0117100 0.9988716 -0.0460271
25.3546475 -5.3160259 -2.2111165 0.1044929 0.3575301 0.9280374
22.6069776 -7.7761636 -2.9838911 -0.0194445 -0.5051449 0.8628155
23.5557037 -6.3992329 -1.2955710 -0.0797924 -0.2280103 0.9703837
19.5958509 -8.4673334 1.5720247 0.7080764 -0.7060641 0.0100621
20.1567234 -7.5174903 2.9361558 0.5108689 -0.8081862 0.2929982
18.4719913 -8.4196521 4.0961375 0.5099368 -0.3864860 0.7685005
17.7211647 -8.7737560 4.7423416 0.8173995 -0.1173295 0.5639962
17.7068290 -8.4042507 5.7686615 0.6078643 0.3374564 0.7187657
15.7602432 -9.9176874 5.8395153 -0.0857682 0.1944870 0.9771482
7.0887518 -17.9222697 2.7524991 0.9151223 -0.2827720 -0.2873869
6.6243147 -17.9451304 3.6808865 -0.3917131 0.4899653 0.7787778
-0.0253570 -23.8916386 1.8303652 0.8720867 0.4560069 -0.1775457
-0.5273349 -23.9199747 2.8240195 0.2090599 0.4036256 -0.8907190
-1.6071114 -24.4958636 3.5737351 0.6470767 0.2609469 0.7163787
-0.6802731 -23.1729345 5.1631850 -0.1653329 0.9797608 0.1128446
-3.7333780 -25.5992490 5.1326240 -0.0059497 -0.6144655 -0.7889212
-2.1985137 -23.7159784 6.9360431 0.4622869 0.8504526 0.2510403
-4.6511190 -25.5576114 7.2010875 0.6255267 0.3574426 -0.6935064
-4.4496632 -24.9263182 8.4729060 0.6609466 0.7363016 -0.1449466
-6.7879364 -26.6389025 8.8420070 0.0431855 -0.7172622 0.6954639
-5.8869375 -25.3676992 10.3471427 0.7123143 -0.3548231 0.6055649
34.5855530 -3.1993057 -13.1927744 0.8846785 0.2417916 -0.3985984
35.3161761 -1.9320404 -11.3902874 0.9433451 -0.2287541 0.2403573
34.3665453 -2.6223064 -11.1961476 0.8670730 -0.0569246 0.4949182
34.2569526 -2.3391106 -10.2117068 0.9687995 -0.0157926 0.2473419
35.3764821 -0.6555312 -8.1344443 0.6269920 -0.0781253 0.7750984
33.7918947 -2.0619507 -8.4855592 0.9420946 0.1601779 0.2946198
33.1232410 -2.0197279 -6.9483127 0.7887189 0.4147777 0.4537422
33.0806023 -1.6736271 -5.9398118 0.5494732 0.3486566 0.7592877
31.6117261 -2.9131872 -6.0951845 0.7810940 0.3389522 0.5244078
31.2015343 -2.9711778 -5.3745697 0.6466861 0.1453170 0.7487857
30.6562894 -3.1765546 -4.7568387 0.7048819 0.2706686 0.6556524
29.3445134 -4.2151044 -4.7141501 0.0390985 -0.0647146 0.9971376
27.8140948 -5.4788464 -4.8024523 -0.5008909 0.6190032 0.6049325
27.5585390 -5.3544136 -3.9278029 0.3481243 0.8201109 0.4541229
26.5950374 -5.9900559 -3.5592729 0.6045971 -0.6121809 0.5096046
25.8978724 -6.3347791 -2.9871563 0.8218526 -0.5382590 0.1866426
24.5488898 -7.3664649 -2.8469597 0.4845525 -0.5119138 0.7093329
24.3229289 -7.2031784 -1.9323824 0.2714072 0.0671357 0.9601203
13.2429799 -17.9610823 -6.8366504 0.2456260 0.7046196 0.6657170
12.8576187 -17.9082586 -5.8751640 0.5511626 0.8274157 0.1077171
8.2356191 -21.7544371 -6.2202316 0.9566033 0.0104438 -0.2912061
7.7405061 -21.7941836 -5.2702284 0.8686947 0.0768417 -0.4893515
7.7861207 -21.2847902 -4.0169125 0.9981301 0.0608561 0.0057244
6.4917475 -20.3218440 1.2952185 0.7267918 0.3625955 -0.5833508
6.3551465 -20.0149487 2.4000645 0.4081572 0.6559670 0.6349133
6.5855858 -19.3520746 3.6663289 0.2500855 0.6452229 0.7219035
3.7296401 -21.7003600 3.5280846 -0.6502017 0.1451195 0.7457735
1.5678638 -23.3525433 3.7557154 0.0717483 0.9637401 0.2570161
0.4054471 -24.0250616 4.4504838 0.2309701 0.9480102 0.2189282
-2.2848634 -26.1557677 4.5360367 0.7993007 -0.5151159 -0.3094736
-0.7184204 -24.2042302 6.3710918 0.0473125 0.8458382 0.5313372
-1.2886655 -24.3003698 7.3317326 0.2736220 0.9214593 0.2757603
-2.1247859 -24.6466999 8.1957861 0.0961699 0.7249235 0.6820831
-3.6920133 -25.6768184 8.8053483 0.0829677 0.6189820 -0.7810106
-4.0601056 -25.5752608 9.8592319 -0.1336907 0.4320115 0.8919041
34.9237468 -3.5735792 -11.9608557 0.9777663 0.0138861 0.2092371
34.0309506 -4.2033052 -11.7004855 0.9886704 -0.0765748 0.1291015
33.7931533 -3.2285392 -8.6508061 0.7515124 -0.2418152 0.6138033
32.7805733 -3.9828662 -8.4601412 0.8139299 -0.0826807 0.5750496
32.2666439 -4.1591686 -7.8245549 0.9369205 0.3491794 -0.0159265
33.3031907 -2.5742338 -5.8995698 0.8421313 -0.2787784 0.4616249
32.4189517 -3.1744016 -5.5803344 0.4944689 0.0740434 0.8660359
31.0764505 -4.2815064 -5.6066717 0.6737961 0.3955865 0.6241075
30.7600950 -4.2317294 -4.8024792 0.3866499 0.4112678 0.8254457
29.8002418 -4.8958736 -4.4889546 0.0857302 0.9878442 0.1296693
29.0392547 -5.3332430 -4.0077640 -0.3840453 0.7275442 0.5684968
27.8660981 -6.2173750 -3.8134258 0.0189647 0.8986582 0.4382394
28.1710653 -5.4806892 -2.5417629 -0.6178386 -0.6196517 0.4840529
26.5257571 -6.8657319 -2.6476704 0.2318237 0.4131527 0.8806603
25.4996806 -7.5680188 -2.2924838 0.0229913 0.2939937 0.9555308
13.8661556 -19.6299763 -8.9594945 0.7995525 0.4319676 -0.4172766
13.6270826 -18.9496869 -6.6752723 0.2394148 0.9675545 0.0807388
12.2456999 -19.9452287 -6.3277049 -0.2612364 0.6407531 0.7219356
11.6271123 -20.1302621 -5.4918052 -0.7801937 0.2815899 0.5585740
8.6685715 -22.2796392 -4.7922827 0.8972207 0.2713097 -0.3484051
9.4683027 -20.9861228 -3.1227006 0.0342614 0.7020418 0.7113111
8.7039920 -21.3112224 -2.3415563 0.7694472 0.5875649 0.2504365
6.7741269 -22.8225486 -2.1703281 0.2139603 0.0261515 0.9764922
5.0164800 -24.1431302 -1.8686204 0.6210115 -0.4976800 -0.6055240
7.9208872 -19.8491486 3.1416997 0.7283340 0.3424533 -0.5935110
7.2450529 -20.0820776 3.9746854 0.3164236 0.8558888 0.4090604
6.6482469 -20.2344364 4.8493910 0.0912244 0.5808963 0.8088495
5.0580438 -21.3630196 5.2950261 0.6009448 0.7973251 0.0560180
1.4578665 -24.4484985 4.9203293 0.2407849 0.7015150 0.6707453
1.1787259 -24.2670101 5.9887791 -0.4191143 0.9010948 0.1112270
0.8688195 -24.1171696 7.0402520 -0.2324645 0.8851794 0.4030108
0.2235869 -24.2922861 7.9588175 -0.3328008 0.9428822 -0.0147257
-1.7266109 -25.7181956 8.3962064 0.0085578 0.3986444 0.9170656
-2.7596574 -25.8028597 10.3773917 0.0431624 0.0618924 0.9971491
34.5356651 -5.2426585 -12.5327076 0.9464441 -0.2196165 -0.2366687
34.8923075 -4.3825240 -11.0851186 0.4347865 0.7727031 0.4624831
35.1619612 -3.6363178 -9.7445378 0.8745622 -0.0029214 0.4849045
33.6900083 -4.9576928 -9.9986514 0.8718399 0.2840187 0.3990345
33.3949001 -4.8805265 -9.1715271 0.9445790 0.0133210 0.3280137
33.5200415 -3.8985005 -6.9175975 0.7736913 0.1099649 0.6239467
32.7299086 -4.4002349 -6.5212110 0.8514486 -0.0436499 0.5226184
32.7351534 -3.9835849 -5.4629267 0.9540925 0.2992031 -0.0136040
31.3922306 -5.1094309 -5.4901933 -0.1094835 -0.9517575 0.2866550
31.5487688 -4.5219500 -4.3159143 0.7705552 0.5623263 0.3000565
30.9177763 -4.8290814 -3.7592411 0.6229235 0.6736885 0.3976307
30.2302272 -5.1960776 -3.2356739 0.2664289 0.7848001 0.5595574
29.2531700 -5.8815318 -2.9124145 0.0223196 0.6149709 0.7882339
28.7962352 -5.9828290 -2.1984239 0.2242463 0.2996825 0.9273101
25.3058631 -9.4254960 -3.5950441 -0.5600873 -0.5949877 0.5764476
25.9250188 -8.3266814 -2.0943804 -0.4315653 -0.2633237 0.8627931
12.2609406 -22.8029365 -10.1259332 -0.3320116 0.6238813 -0.7074888
16.1250416 -17.6645516 -5.1733561 -0.0382220 0.9984472 -0.0405256
15.1204672 -18.2846747 -4.6237481 0.2230142 0.6589457 0.7183699
13.9041484 -19.1236975 -4.1846615 0.3691578 0.3112113 0.8757112
11.2136875 -21.5161858 -4.5907555 -0.1337212 0.6895225 0.7118127
8.9489279 -23.4340207 -4.6859261 0.6785674 0.5424792 -0.4952399
9.3795698 -22.5048433 -3.2188540 0.9183163 0.3711741 -0.1375680
9.0387132 -22.3902688 -2.1981924 0.7339549 -0.0092382 0.6791354
6.9746519 -24.0646546 -2.0962820 -0.1962176 0.2308161 0.9530071
8.5550572 -21.9603669 -0.0637521 0.7983274 0.5990144 0.0620897
6.0849902 -24.0361782 -0.1267861 -0.4407126 0.8798780 0.1777275
7.1964004 -22.4329840 1.6192384 0.8883387 0.4585688 -0.0238523
9.5297715 -19.6051524 3.9039514 0.4454608 0.3759202 0.8125569
8.0720944 -20.6378009 4.3605157 0.5135218 0.2852459 0.8092775
6.9612348 -21.3111248 5.0001243 0.3441157 0.2875488 0.8938121
5.5534706 -22.2745191 5.5280573 -0.2144423 0.8397754 0.4987903
3.1257375 -24.2430880 5.6500560 -0.5629303 0.8063887 0.1812365
3.4708371 -23.4463560 6.9595069 -0.2986223 0.4239460 0.8550406
1.7894469 -24.6539263 7.4439459 0.0079313 0.4777519 0.8784590
0.6174086 -25.3501330 8.1552270 0.2541088 0.7352268 0.6283870
0.1113117 -25.3899311 9.1318685 0.2572225 0.6299449 0.7328070
-0.7890295 -25.8119027 9.9679115 0.2772738 0.6959284 0.6624220
-2.1816577 -26.7050434 10.6439084 0.2086562 -0.2590554 0.9430551
35.7346632 -5.0012524 -11.5834088 0.9205824 0.2998259 -0.2502649
34.4305427 -6.1536220 -11.7142697 0.9730437 0.0869023 -0.2136211
34.9382747 -5.1000165 -10.1352917 -0.0142905 0.7686278 0.6395366
33.3090980 -6.6285549 -10.5234126 0.8913010 -0.0155994 0.4531437
34.7105153 -4.5168446 -8.1767895 0.9691479 0.2035952 0.1389291
33.4255980 -5.6215473 -8.2281843 0.9163213 -0.2531003 0.3103151
32.2556636 -6.5772522 -8.1483291 0.8930359 -0.3505342 0.2821571
32.8642248 -5.4341460 -6.5582121 0.8747330 -0.1155839 0.4706193
32.9897887 -4.4543810 -4.3511152 0.5794164 0.4544075 0.6766021
31.4782114 -5.7885034 -4.4988439 0.8541373 -0.1056783 0.5091969
31.5643253 -5.2755101 -3.3866551 0.8913979 -0.0232242 0.4526260
30.9014505 -5.6221277 -2.8491787 0.6527228 0.5201240 0.5508393
30.7564203 -5.3779266 -1.9232147 0.3501837 0.5639605 0.7478769
29.4618199 -6.4317908 -1.8255582 -0.2640882 0.4655910 0.8446789
27.2798824 -8.4677980 -2.3172095 -0.3999151 -0.0007976 0.9165519
15.8982349 -20.2451149 -7.8039425 -0.5010001 0.7403689 0.4481660
14.9847099 -19.8196236 -4.7819420 0.3615664 0.4929341 0.7913822
13.9473058 -20.4749300 -4.2258240 0.1982010 0.7610455 0.6176780
13.5352048 -20.4493226 -3.2827091 0.6566618 0.6084484 0.4456297
9.6715553 -24.1227448 -4.3255039 -0.0163537 -0.9985877 0.0505484
11.7657310 -21.4064348 -1.9284303 -0.7395258 0.5765651 0.3473820
9.1232036 -23.7406958 -2.1916357 -0.9844606 0.1301410 -0.1179007
8.2871919 -24.1451505 -1.4311891 -0.0341328 0.9844683 0.1722121
8.9589827 -22.9638953 0.1205067 0.7903402 0.6061949 0.0888266
7.0254501 -24.0395950 1.5249573 0.7389970 -0.4640603 -0.4883968
8.3744315 -22.1783610 3.3506849 0.9266253 0.1308726 0.3524739
6.7760637 -23.3633287 3.7647029 0.6475590 -0.3161350 0.6933441
7.6011569 -22.0601151 5.2976692 0.4919327 0.1345996 0.8601658
6.1104526 -23.1240476 5.7879097 -0.2324061 0.6248721 0.7453337
4.7444485 -24.0509741 6.3583973 0.2030268 0.5894270 0.7818925
5.4621373 -22.8722512 7.8058604 0.7477898 -0.2754039 0.6041218
2.6689528 -25.2194933 7.8310074 0.0816512 0.6035243 0.7931529
1.6263020 -25.7997812 8.5877959 0.2641801 0.6719843 0.6918424
-1.2060337 -28.1475055 8.6951794 -0.2374556 -0.8817033 0.4076936
-0.3383980 -26.8240466 10.1885988 -0.1869002 -0.9781140 0.0914404
35.3308714 -6.2747705 -11.0604540 0.9468230 -0.1344134 -0.2923342
35.9534565 -5.0654055 -9.3814137 0.9669938 0.1584303 0.1995567
34.9198409 -5.8964100 -9.2438034 0.2335217 -0.4618776 0.8556499
34.9494838 -5.4248543 -8.1348350 0.2445446 -0.3634853 0.8989307
33.1656062 -7.1500208 -8.6206024 0.5287650 0.3012241 0.7935185
32.5626672 -7.4362355 -8.0468275 -0.4007663 -0.2257066 0.8879431
34.2618476 -4.9710654 -5.5410781 0.8027681 -0.5711686 0.1712595
30.8551885 -7.2932062 -4.0516362 0.7288746 -0.3763111 0.5719544
29.9637820 -7.9029048 -3.6670543 0.8055148 -0.2836450 0.5202802
29.7396298 -7.7367241 -2.7761730 0.8232250 -0.2644230 0.5023755
29.4867753 -7.6053367 -1.9105962 0.7894420 0.0559260 0.6112721
29.6429534 -7.0095492 -0.7625447 0.9080715 -0.4181242 0.0240475
28.5632756 -7.8202180 -0.4761993 -0.2244530 0.9668341 -0.1218713
18.9854316 -18.1919508 -5.8412922 0.1101538 0.5460409 0.8304851
15.5426658 -21.5768453 -6.9165930 -0.4398269 0.8579994 0.2653100
17.0685289 -19.3910286 -4.7357947 0.1229732 0.4394802 0.8897948
13.7945253 -22.5447246 -5.5961343 0.9717461 -0.2357232 0.0120029
14.8891433 -20.8526369 -3.7233659 0.3443581 0.8553943 0.3869342
14.0887090 -21.2545915 -3.0163070 0.5861528 0.7348279 0.3412519
12.0662990 -22.9831152 -3.0019641 -0.6070929 -0.0883755 0.7897012
11.0498004 -23.6031612 -2.3764568 -0.5864114 0.0506357 0.8084292
12.5870909 -21.4650313 -0.3385528 -0.3920318 0.8282474 0.4003964
9.5446598 -24.2575768 -0.7947937 0.9102940 0.4130530 -0.0274228
9.3743879 -23.9588752 0.3106462 0.8521220 0.3586156 -0.3811601
9.1966621 -23.6712570 1.4044246 0.6058760 0.7775353 -0.1683838
8.3346170 -24.1083553 2.1554557 0.8891993 0.4543018 0.0541710
8.6296322 -23.3270632 3.4686748 0.6615495 0.5303330 0.5301879
7.8636556 -23.6611338 4.2710242 0.8300978 0.0881132 0.5506122
6.2042944 -24.9191319 4.6810870 0.9096001 -0.3936827 -0.1328218
7.5709914 -23.0390619 6.4411632 0.7762510 0.1664852 -0.6080437
5.5874264 -24.6203670 6.7386483 0.4315842 -0.0015334 0.9020713
4.0716717 -25.7072887 7.2678478 0.7445835 0.5502181 0.3779622
3.3074431 -26.0188959 8.1223088 0.3415907 0.3268034 0.8812011
1.8514546 -27.0272003 8.7195312 0.5730234 0.0588766 0.8174214
35.4807033 -6.8675923 -10.0080375 0.9527686 0.1037084 0.2854408
35.3469692 -6.5866433 -9.0356638 0.6441735 -0.1973948 0.7389694
33.6168431 -8.2827373 -9.4970068 0.5645127 -0.5202703 0.6408153
33.9676132 -7.4012515 -8.0882649 0.6231585 0.3687332 0.6897168
32.9500268 -8.2015986 -7.8771258 0.8200777 0.3770589 0.4304640
33.3579610 -7.2618527 -6.4477091 0.7820859 0.3263263 0.5308982
31.9274070 -8.5517234 -6.5538460 0.5905904 -0.2878484 0.7538875
31.4030471 -8.7393060 -5.8950177 0.8891018 -0.0789745 0.4508447
31.3790566 -8.3280720 -4.8378479 0.8731662 -0.3969099 0.2829192
31.7707432 -7.0019871 -2.4286681 0.8225931 0.1538325 0.5474268
29.7046074 -9.0003669 -2.9132770 0.9369296 0.2878805 0.1982116
30.7107640 -7.3973524 -1.1364281 0.7075075 0.0739583 0.7028252
29.1303706 -8.8079638 -1.2185442 0.4769922 -0.5677974 0.6708834
29.4204420 -8.0488683 0.0201704 0.4834865 -0.7159451 0.5036501
19.1721991 -19.3626100 -5.8123143 0.3170838 0.5360689 0.7823605
18.3466806 -19.8222575 -5.1771087 -0.1244210 0.5758453 0.8080357
17.2656764 -20.5659168 -4.6921089 -0.1528978 0.7366285 0.6587873
16.0466298 -21.4566285 -4.2726028 0.3065085 0.4818073 0.8209228
16.3254080 -20.6608992 -2.9201955 -0.1046411 0.9507116 0.2918866
14.9745214 -21.6879776 -2.5532636 0.4443816 0.6901671 0.5711343
13.0977440 -23.2859023 -2.4618458 -0.4270289 -0.3055197 0.8510605
14.0451771 -21.7570885 -0.7413445 -0.0139806 0.9613166 0.2750907
12.3094975 -23.1827446 -0.5292577 -0.8289391 0.5206721 0.2043539
11.7735148 -23.2864888 0.3594456 -0.1692977 0.4613639 0.8709085
10.6875225 -23.9848510 0.9658917 -0.2910203 0.9539489 -0.0727235
8.8300951 -25.5068242 1.2018686 0.5285579 -0.6271143 -0.5721487
9.5859883 -24.2121604 2.7578379 0.6193897 0.7484636 0.2369782
8.5641004 -24.8261821 3.4339674 0.9618703 0.1462620 0.2311125
8.1561552 -24.7827695 4.4097468 0.6834827 0.4438946 0.5794903
7.1297204 -25.3921536 5.1069136 0.1355735 0.5591719 0.8178916
6.7962087 -25.2681432 6.1212028 0.5952575 0.4590044 0.6595327
6.4549464 -25.1535101 7.1290728 0.9170309 0.3783924 0.1259901
4.3584604 -26.8626764 7.4166825 -0.6421154 -0.4906831 0.5889973
3.2632974 -27.5198555 8.1434262 -0.4857261 -0.6977837 0.5264675
34.5206957 -9.3277074 -11.0954407 0.9677819 0.1520223 0.2007171
34.3917334 -9.0250510 -10.0918097 0.9753511 0.2086353 -0.0718443
34.5534654 -8.3606424 -8.8367969 0.6984455 0.6670196 0.2593427
34.1064901 -8.4650487 -8.1354135 0.4877635 0.2376555 0.8400039
33.3926183 -8.8996517 -7.6601603 0.8259079 -0.1359764 0.5471623
33.0139075 -8.9152464 -6.8904496 0.7266816 0.5316563 0.4350579
33.0016424 -8.4810424 -5.8188303 0.8341728 -0.0357100 0.5503459
30.6469194 -10.9088720 -6.6452241 0.9325102 -0.3533206 -0.0747616
32.9007480 -7.7207618 -3.7731628 0.5188701 -0.8471783 0.1142924
30.8814346 -9.7200857 -4.2827607 0.9559143 0.0946715 0.2779660
29.1192567 -11.3877742 -4.5419582 0.0253458 -0.9278003 0.3722151
29.2973127 -10.7251345 -3.3260006 0.4381094 -0.6927174 0.5728898
29.9571830 -9.4997380 -1.7820742 0.4590426 -0.4614266 0.7591873
24.3158744 -15.7060949 -4.7007093 0.3144846 -0.4644770 0.8278651
20.7219442 -19.4447002 -6.0416909 0.0488545 0.3545604 0.9337559
19.4550503 -19.9432672 -4.5416284 -0.6985216 0.5124365 0.4994761
19.6696008 -19.2126978 -3.2399016 -0.6842604 0.1685864 0.7094832
16.0956944 -22.3299566 -3.1274900 0.6170110 0.4320734 0.6577310
15.3537188 -22.6803897 -2.3896667 0.5521889 0.6803792 0.4818419
13.5243935 -24.2502117 -2.2700901 -0.1605274 -0.5125876 0.8434956
14.0407156 -23.1784154 -0.7900144 0.6482990 0.3309845 -0.6856804
14.9001645 -21.7365742 0.8496454 0.0137212 0.7651906 0.6436576
12.5362133 -23.8775020 0.7337235 -0.3177962 0.6461729 0.6938776
11.5665542 -24.4606452 1.3965580 -0.4476007 0.4347731 0.7814256
10.8708891 -24.7375653 2.2126700 0.7676264 0.5071585 0.3918417
9.8813037 -24.8474524 4.0574842 -0.1328393 0.8602023 0.4923472
9.8739804 -24.3763881 5.2073214 -0.0146101 0.9415914 -0.3364405
8.8796669 -24.9679342 5.9024770 0.1068009 0.9923942 0.0612155
8.2305149 -25.1853436 6.7627312 -0.3727967 0.6596908 0.6525570
6.9484328 -26.0716359 7.3616052 0.7633797 0.5885489 0.2661986
6.5136373 -26.0549332 8.3286317 -0.2957607 0.9539615 0.0498296
34.7250068 -9.8643215 -9.9740092 0.7595745 -0.5576454 -0.3347809
34.7511392 -9.3613298 -8.8376389 0.7300624 -0.2110743 0.6499665
33.7639006 -10.1523254 -8.6078756 0.7804699 0.5525490 0.2925001
33.4509517 -10.0819934 -7.7741094 0.8528679 0.5195987 -0.0513180
