ply
format ascii 1.0
element vertex 750
property float x
property float y
property float z
property float nx
property float ny
property float nz
end_header
6.7794462 -32.2292424 -11.2583523 -0.6190849 0.1146051 -0.7769167
7.6140233 -32.2943737 -11.9059376 -0.4978839 0.1588504 -0.8525715
8.4151471 -32.3368621 -12.2900427 -0.3980638 0.1990931 -0.8954927
9.2043865 -32.3746581 -12.6202844 -0.3227402 0.2033818 -0.9243779
9.9799683 -32.4036914 -12.8486670 -0.4422725 0.2242577 -0.8683913
10.7445954 -32.4243538 -12.9794326 -0.0162287 0.2447043 -0.9694619
11.5018874 -32.4388971 -13.0387390 0.0677916 0.2562145 -0.9642398
12.2481747 -32.4360822 -12.8938729 0.2270285 0.2229471 -0.9480256
12.9918680 -32.4251785 -12.6534845 0.3359749 0.2053051 -0.9192229
13.7360566 -32.4090392 -12.3509439 0.3774249 0.1911502 -0.9060972
14.4828238 -32.3907913 -12.0230153 0.4372815 0.1824898 -0.8806148
15.2322290 -32.3654780 -11.6109185 0.5485733 0.2176787 -0.8072691
15.9861385 -32.3255518 -11.0248838 0.6690569 0.2245298 -0.7084837
16.7509689 -32.2414422 -9.9133319 0.8499951 0.2405022 -0.4686865
17.5456891 -32.0745092 -7.8152746 0.9271761 0.2255418 -0.2991242
-8.0109030 -33.1366942 -15.5468495 -0.5298511 0.3867336 -0.7547813
-7.0942542 -33.1895147 -16.0986035 -0.3138812 0.4230142 -0.8500221
-6.2712628 -33.2153964 -16.3131094 -0.1402838 0.4212413 -0.8960336
-5.4853351 -33.2305932 -16.3938398 0.0131733 0.4282961 -0.9035424
-4.7328327 -33.2352348 -16.3419397 0.0990391 0.4296888 -0.8975293
-4.0021477 -33.2323453 -16.1951069 0.2039716 0.3971696 -0.8947916
-3.2821059 -33.2252484 -15.9950051 0.2404256 0.3900316 -0.8888593
-2.5651418 -33.2163895 -15.7723905 0.2580666 0.4024553 -0.8783116
-1.8469385 -33.2073010 -15.5465966 0.2819106 0.4092274 -0.8677899
-1.1284691 -33.1975416 -15.3120156 0.3241012 0.3657231 -0.8724707
-0.4288359 -33.1785755 -14.9602078 0.5137367 0.3113168 -0.7994726
0.2357596 -33.1415992 -14.3788116 0.7228482 0.2668531 -0.6374009
0.8608679 -33.0817762 -13.5054291 0.8845892 0.1231381 -0.4498210
1.4313182 -32.9877813 -12.1946664 0.9309503 0.0970740 -0.3520058
1.8973193 -32.8271309 -10.0304281 0.9778165 -0.0231333 -0.2081819
6.7751986 -32.9849934 -11.3599798 -0.6508691 0.1280403 -0.7483148
7.6145316 -33.0508430 -12.0931612 -0.5289696 0.1895548 -0.8272002
8.4126752 -33.0899707 -12.4840856 -0.3668947 0.2160008 -0.9048381
9.1974514 -33.1233440 -12.8019806 -0.2950317 0.2643730 -0.9181847
9.9672136 -33.1468866 -12.9939405 -0.1882280 0.2643707 -0.9458744
10.7302181 -33.1677572 -13.1520724 -0.1113025 0.2439955 -0.9633680
11.4839896 -33.1807440 -13.2087906 0.0747170 0.2089045 -0.9750776
12.2271737 -33.1787414 -13.0716536 0.2167526 0.1851908 -0.9585002
12.9664681 -33.1666940 -12.8041301 0.3252566 0.1969979 -0.9248784
13.7072655 -33.1517263 -12.4983050 0.3903890 0.1949526 -0.8997721
14.4504890 -33.1339732 -12.1558017 0.4267229 0.1661203 -0.8889947
15.1970165 -33.1136522 -11.7793229 0.5280562 0.1416693 -0.8373091
15.9474317 -33.0808477 -11.2394978 0.6352696 0.1574275 -0.7560748
16.7071876 -33.0154947 -10.2738989 0.8311957 0.1396349 -0.5381596
17.4901486 -32.8962566 -8.6022575 0.9179206 0.2158668 -0.3329013
-7.8561784 -33.8995751 -16.0277325 -0.4677155 0.3754425 -0.8001782
-6.9627832 -33.9423217 -16.5129064 -0.3167309 0.4054989 -0.8574685
-6.1550773 -33.9627794 -16.6883108 -0.1251949 0.3930439 -0.9109570
-5.3860743 -33.9729045 -16.7199602 0.0164737 0.3955168 -0.9183110
-4.6370071 -33.9774897 -16.6744127 0.1114137 0.3873780 -0.9151641
-3.9116758 -33.9746886 -16.5255161 0.1941055 0.4134548 -0.8895944
-3.1942740 -33.9689960 -16.3359562 0.2134888 0.4283456 -0.8780334
-2.4778454 -33.9625108 -16.1350709 0.2438853 0.4547248 -0.8565893
-1.7632755 -33.9548112 -15.9168882 0.2935707 0.4526745 -0.8419632
-1.0548277 -33.9441147 -15.6562484 0.3691050 0.4194255 -0.8293634
-0.3689087 -33.9234797 -15.2551422 0.5359438 0.3758657 -0.7559691
0.2890183 -33.8892240 -14.6610937 0.7115256 0.2900908 -0.6399833
0.9006926 -33.8313347 -13.7319244 0.8416205 0.1973938 -0.5027033
1.4516336 -33.7394597 -12.3199770 0.9138316 0.2107294 -0.3471382
1.8669346 -33.5716231 -9.8289558 0.9869589 -0.0063461 -0.1608471
6.7748466 -33.7378011 -11.5007228 -0.6572179 0.1446498 -0.7396898
7.6138604 -33.7993000 -12.2654098 -0.5539355 0.1780732 -0.8132929
8.4127597 -33.8381016 -12.7076082 -0.4130063 0.3200313 -0.8526463
9.1989768 -33.8731370 -13.0971951 -0.2968006 0.3889996 -0.8721174
9.9629181 -33.8927279 -13.2665928 -0.1547863 0.3191356 -0.9349832
10.7171214 -33.9058152 -13.3433222 -0.0410421 0.2896843 -0.9562419
11.4634464 -33.9119153 -13.3201093 0.0876937 0.2344367 -0.9681680
12.2039769 -33.9105553 -13.1897965 0.2010400 0.2490300 -0.9474001
12.9426904 -33.9047656 -12.9956486 0.2934118 0.2884962 -0.9114162
13.6807341 -33.8935880 -12.7236252 0.3850786 0.2839033 -0.8781306
14.4195608 -33.8755644 -12.3524062 0.4663809 0.2595436 -0.8456512
15.1618778 -33.8534643 -11.9216704 0.5289029 0.1909871 -0.8269134
15.9089780 -33.8242392 -11.3871055 0.6423558 0.1453651 -0.7524945
16.6649409 -33.7681269 -10.4620969 0.8201258 0.1305804 -0.5570839
17.4385879 -33.6865268 -9.1655802 0.9112278 0.1451014 -0.3854991
-7.7211067 -34.6461014 -16.4350554 -0.4592496 0.3419827 -0.8198400
-6.8545757 -34.6787798 -16.8366071 -0.2765825 0.3281714 -0.9032196
-6.0551896 -34.6960691 -16.9981252 -0.1136307 0.3367566 -0.9347101
-5.2951286 -34.7039115 -17.0120118 0.0379064 0.3349957 -0.9414568
-4.5568156 -34.7062234 -16.9392807 0.1441444 0.3194358 -0.9365806
-3.8308275 -34.7051302 -16.8130585 0.1841553 0.3145565 -0.9312041
-3.1058118 -34.7036610 -16.6808734 0.1769772 0.3196271 -0.9308693
-2.3889614 -34.6995204 -16.5064989 0.2281526 0.3738459 -0.8989915
-1.6769478 -34.6934631 -16.3017018 0.3079587 0.4048686 -0.8609546
-0.9816628 -34.6812014 -15.9985856 0.3972186 0.3919144 -0.8298316
-0.3044974 -34.6614069 -15.5757726 0.5516833 0.3739917 -0.7455037
0.3489439 -34.6309356 -14.9830114 0.6905712 0.3453864 -0.6354680
0.9657896 -34.5831896 -14.1150148 0.8042551 0.3639717 -0.4697855
1.5277935 -34.5079993 -12.8092561 0.8904495 0.2605954 -0.3730814
1.8509168 -34.3212445 -9.7263271 0.9970917 0.0572806 -0.0502693
6.7727327 -34.4831609 -11.6220917 -0.7017927 0.1267617 -0.7010125
7.6112979 -34.5396532 -12.4147829 -0.5896731 0.2253668 -0.7755614
8.4145847 -34.5799979 -12.9503546 -0.4799650 0.2781086 -0.8320392
9.1977422 -34.6118823 -13.3514602 -0.3452615 0.2871481 -0.8934990
9.9581815 -34.6297809 -13.5286975 -0.1500957 0.2993845 -0.9422527
10.7058106 -34.6386913 -13.5617953 -0.0139353 0.2831979 -0.9589602
11.4486630 -34.6444282 -13.5440406 0.0706928 0.2966730 -0.9523590
12.1851114 -34.6427664 -13.4070163 0.1746630 0.3211482 -0.9307828
12.9215697 -34.6403504 -13.2577370 0.2293251 0.3298554 -0.9157540
13.6569119 -34.6337962 -13.0413802 0.3413822 0.3869727 -0.8565689
14.3908938 -34.6168741 -12.6567536 0.4839250 0.4001900 -0.7782446
15.1276081 -34.5905867 -12.1195385 0.5476530 0.3251729 -0.7709337
15.8709422 -34.5637849 -11.5729772 0.5848874 0.3226618 -0.7441747
16.6225363 -34.5200373 -10.7498215 0.7884395 0.2850598 -0.5450725
17.3913725 -34.4473870 -9.4544364 0.8899619 0.1769030 -0.4203251
-8.5093055 -35.3423376 -16.2419652 -0.4833080 0.3233830 -0.8135335
-7.5966242 -35.3800318 -16.8033297 -0.3923503 0.3002680 -0.8694253
-6.7635347 -35.4024355 -17.0935605 -0.2545157 0.2834168 -0.9246062
-5.9746303 -35.4161685 -17.2298990 -0.0804053 0.2873513 -0.9544445
-5.2176840 -35.4232482 -17.2478598 0.0696342 0.2547120 -0.9645065
-4.4938305 -35.4226916 -17.1294201 0.1675250 0.2307137 -0.9584918
-3.7804383 -35.4194286 -16.9624457 0.1628286 0.2456114 -0.9555950
-3.0502276 -35.4203663 -16.8707154 0.1448426 0.2998005 -0.9429424
-2.3237109 -35.4203625 -16.7621079 0.1986175 0.3081342 -0.9303786
-1.6121720 -35.4160714 -16.5763823 0.3063491 0.3238726 -0.8951295
-0.9188870 -35.4059647 -16.2857359 0.4245292 0.3220826 -0.8461901
-0.2491013 -35.3876261 -15.8462309 0.5338927 0.3216712 -0.7819759
0.4094288 -35.3638959 -15.3086105 0.6435258 0.3426964 -0.6844221
1.0332276 -35.3259400 -14.5128636 0.7857257 0.3414585 -0.5157919
1.6123189 -35.2679606 -13.3531638 0.8997955 0.2792148 -0.3352718
1.8689084 -35.0811856 -9.8576624 0.9913489 0.1267337 0.0341467
7.6149954 -35.2774918 -12.6328267 -0.6064083 0.2317756 -0.7606241
8.4194128 -35.3161255 -13.2277556 -0.4588582 0.2528887 -0.8517608
9.1953784 -35.3418183 -13.5874000 -0.3007589 0.2654412 -0.9160159
9.9487312 -35.3547951 -13.7150532 -0.0921885 0.2182665 -0.9715251
10.6927031 -35.3624099 -13.7448580 -0.0482575 0.2344257 -0.9709355
11.4333506 -35.3687746 -13.7520200 0.0155654 0.2829984 -0.9589941
12.1693878 -35.3715154 -13.6927920 0.1401999 0.3196713 -0.9370988
12.9023137 -35.3705347 -13.5651459 0.1786168 0.3331162 -0.9258129
13.6344574 -35.3673446 -13.3967214 0.2559648 0.3554991 -0.8989452
14.3649421 -35.3565359 -13.0875241 0.5098006 0.3791542 -0.7722340
15.0962559 -35.3340413 -12.5619003 0.5296559 0.3518532 -0.7717927
15.8339852 -35.3107942 -12.0213892 0.5301034 0.4862213 -0.6946792
16.5788844 -35.2821380 -11.3796868 0.6453432 0.4137874 -0.6421154
17.3382558 -35.2269885 -10.2454361 0.8573508 0.3396495 -0.3867660
18.1429103 -35.0941857 -7.6670730 0.9638739 0.2202706 -0.1497598
-8.3991862 -36.0683114 -16.5379832 -0.5480861 0.1682152 -0.8193322
-7.5150375 -36.0963516 -17.0082441 -0.3907988 0.1725574 -0.9041572
-6.6837483 -36.1160402 -17.3069986 -0.2092700 0.1975783 -0.9576893
-5.9013692 -36.1273357 -17.4327609 -0.0292629 0.1395294 -0.9897855
-5.1669214 -36.1295822 -17.3712991 0.0994374 0.1591535 -0.9822334
-4.4430556 -36.1297433 -17.2666181 0.1499284 0.1645913 -0.9749006
-3.7174467 -36.1302992 -17.1701584 0.1100168 0.2778747 -0.9542966
-2.9819888 -36.1331435 -17.1213879 0.1531394 0.2442760 -0.9575372
-2.2613676 -36.1326946 -17.0040883 0.2895808 0.1745758 -0.9410984
-1.5655671 -36.1260837 -16.7581289 0.3411238 0.1414289 -0.9293183
-0.8726505 -36.1181659 -16.4845258 0.3949741 0.1777698 -0.9013286
-0.1952200 -36.1053788 -16.1086344 0.4972657 0.1412968 -0.8560152
0.4635089 -36.0861351 -15.5968409 0.6562760 0.2382255 -0.7159263
1.0970101 -36.0575597 -14.8883561 0.7826916 0.2323385 -0.5774189
1.6927840 -36.0143307 -13.8707256 0.9128278 0.1568386 -0.3770239
2.1318019 -35.9151124 -11.6737740 0.9942212 0.0123252 -0.1066409
7.6209834 -36.0091937 -12.8747444 -0.6713482 -0.0011039 -0.7411413
8.4176692 -36.0402092 -13.4219859 -0.4226474 0.1355746 -0.8960964
9.1881605 -36.0610474 -13.7545180 -0.2273805 0.1277244 -0.9653935
9.9352336 -36.0700657 -13.8366375 -0.1158193 0.1676457 -0.9790203
10.6786857 -36.0785747 -13.9083571 -0.0617430 0.2081345 -0.9761495
11.4183880 -36.0862147 -13.9619704 0.0075259 0.2143971 -0.9767176
12.1515127 -36.0893539 -13.9198813 0.1031454 0.2291771 -0.9679044
12.8811848 -36.0891993 -13.8075516 0.1964132 0.1729186 -0.9651534
13.6095201 -36.0865909 -13.6427127 0.2746520 0.2042689 -0.9395959
14.3377405 -36.0815282 -13.4251661 0.4764177 0.2627021 -0.8390553
15.0651645 -36.0658625 -12.9799709 0.5381654 0.2977405 -0.7884977
15.7975701 -36.0469418 -12.4641074 0.4254588 0.3366653 -0.8400245
16.5368885 -36.0216176 -11.8096563 0.6532794 0.3464756 -0.6731870
17.2872716 -35.9862498 -10.9377973 0.8190770 0.1976057 -0.5385767
18.0794649 -35.8810321 -8.5592107 0.9168359 0.2643301 -0.2992350
-8.3488530 -36.7767199 -16.6124782 -0.5195329 -0.3545463 -0.7774204
-7.4730070 -36.7994252 -17.0620536 -0.4512577 -0.4883827 -0.7468928
-6.6329313 -36.8178031 -17.4063519 -0.2175859 -0.3194516 -0.9222836
-5.8693369 -36.8246440 -17.4671503 -0.0649475 -0.4078817 -0.9107219
-5.1231825 -36.8289446 -17.4656188 0.0016567 -0.4278168 -0.9038640
-4.3963792 -36.8300965 -17.3864852 0.1117236 -0.1921812 -0.9749791
-3.6530922 -36.8343790 -17.3849176 0.1052564 -0.1788492 -0.9782301
-2.9312509 -36.8348715 -17.2896707 0.2287977 -0.4104694 -0.8827041
-2.2254660 -36.8322019 -17.1159872 0.1913978 -0.5218727 -0.8312736
-1.5578114 -36.8214020 -16.7401627 0.3262617 -0.4131900 -0.8501926
-0.8589234 -36.8164385 -16.5088710 0.3260753 -0.2976763 -0.8972534
-0.1691424 -36.8089750 -16.2150319 0.5073062 -0.3905929 -0.7681651
0.4965421 -36.7951169 -15.7613260 0.5451012 -0.4508794 -0.7068044
1.1154353 -36.7682966 -14.9832552 0.6303683 -0.5235597 -0.5731676
1.7322498 -36.7381777 -14.1211698 0.8167690 -0.4224822 -0.3929342
2.1466999 -36.6491561 -11.7835769 0.8644994 -0.4371545 -0.2480659
7.6168096 -36.7287593 -13.0012957 -0.6334000 -0.3428968 -0.6937048
8.4111689 -36.7550961 -13.5558758 -0.5384046 -0.3584715 -0.7626393
9.1748681 -36.7705508 -13.8368564 -0.2463876 -0.0376036 -0.9684416
9.9236996 -36.7807393 -13.9854380 -0.1383621 -0.2475315 -0.9589495
10.6652467 -36.7887032 -14.0782390 -0.2043850 -0.2891772 -0.9352023
11.3995761 -36.7934619 -14.0901828 0.1545000 -0.1857196 -0.9703803
12.1283219 -36.7947729 -14.0148285 0.0632963 -0.5078857 -0.8590959
12.8559961 -36.7954525 -13.9234911 0.2062186 -0.2464383 -0.9469647
13.5819764 -36.7940398 -13.7789210 0.2270586 -0.4650544 -0.8556686
14.3069582 -36.7894177 -13.5524595 0.3788308 -0.3529958 -0.8555006
15.0319022 -36.7783301 -13.1607238 0.3193618 -0.1126077 -0.9409185
15.7609188 -36.7639657 -12.6846134 0.5303225 -0.3572875 -0.7688327
16.4960217 -36.7456027 -12.1053767 0.6903646 -0.1008064 -0.7164041
17.2427073 -36.7129202 -11.1583555 0.8326585 -0.2408164 -0.4986855
18.0127144 -36.6593762 -9.6745660 0.9541601 0.0497058 -0.2951403
1.4701525 -37.3905350 -12.4059785 0.5075523 -0.8544286 -0.1110964
1.7547305 -37.2868268 -9.0946468 0.5509490 -0.8267826 0.1135153
5.1492867 -37.1403356 -3.9702174 -0.0332379 -0.9882323 -0.1493057
5.9283723 -37.1300349 -3.5291568 0.0582665 -0.9955481 -0.0740879
17.2223988 -37.3663879 -9.2916050 0.2231594 -0.9693406 -0.1028529
9.7641180 36.8418148 -1.8051736 -0.1762843 0.7997676 0.5738428
10.7111963 35.7096770 -2.1758787 0.2355355 -0.2380559 0.9422592
9.5772905 36.1221153 -2.5200254 -0.7541783 -0.2217906 0.6180809
10.6243641 34.7148724 -2.4468243 0.1920985 -0.1436455 0.9708059
9.4432387 35.2484968 -2.9997816 -0.1342662 -0.2498361 0.9589341
8.4419275 35.2697129 -2.7159200 -0.2179766 -0.0868490 0.9720820
10.5845881 33.5889189 -2.4998561 0.4801905 -0.1604114 0.8623719
9.4220925 34.0681471 -2.9786814 -0.1551434 0.0850111 0.9842274
8.3652540 34.2386439 -2.9428879 -0.0791363 0.0104038 0.9968095
-0.9775016 36.9860144 -4.8296258 0.3212009 0.5076635 0.7994422
-2.1927178 37.3313546 -5.0536953 -0.4415167 0.8970293 0.0200351
10.5251307 32.5217108 -2.6444435 0.4502750 -0.0718305 0.8899959
9.4418709 32.7869654 -2.7769977 0.0013831 0.3488230 0.9371876
8.3904299 32.9514947 -2.7375875 0.2620731 0.5349679 0.8031980
7.7936273 31.9986208 -0.8230562 0.5132293 0.6498249 0.5606454
7.0004336 31.5741718 0.1987582 0.3952931 0.6286475 0.6697356
6.1097186 31.3997155 0.7997144 0.2782812 0.6105834 0.7414496
5.1087877 31.4780322 0.9788528 0.1119913 0.6129786 0.7821222
3.9581221 31.8683400 0.6417420 -0.0474021 0.6946925 0.7177433
0.1680221 35.5392554 -4.7824664 0.1044247 0.3223071 0.9408579
-1.1676000 36.1327731 -5.4278077 -0.2813789 -0.4164528 0.8645189
-2.3587281 36.4213943 -5.5680511 -0.9763040 0.2036907 0.0730800
10.4524182 31.4928887 -2.8505675 0.8517168 -0.1293224 0.5077935
9.5863748 31.1950856 -2.0246365 0.6592323 0.3449955 0.6681249
8.9084030 30.4542083 -0.4430853 0.6845537 0.4203238 0.5955789
8.1440147 29.9741950 0.6857962 0.5504965 0.4348303 0.7126544
7.2687997 29.7833538 1.3177031 0.3886002 0.2991569 0.8714901
6.3147800 29.7807203 1.6282925 0.2633926 0.2622370 0.9283620
5.3296433 29.8451004 1.8254529 0.1284493 0.2584393 0.9574497
4.2938772 30.0105925 1.8526477 0.0104169 0.2978230 0.9545643
3.1907268 30.3014916 1.6705084 -0.1160227 0.4003306 0.9089962
1.9438809 30.8554845 1.0499498 -0.2832357 0.5617988 0.7772771
-1.3209800 35.2030671 -5.9095361 -0.2680676 -0.0554034 0.9618057
10.4033179 30.4033619 -2.9478868 0.9385717 0.1076652 0.3278587
9.7937984 29.4669457 -0.9963782 0.8230886 0.2818561 0.4930338
9.0385940 28.9561259 0.2036473 0.6904795 0.1407537 0.7095255
8.1935729 28.6931466 0.9676524 0.5533708 0.1082254 0.8258741
7.2830150 28.5968037 1.4401472 0.3642659 0.0093641 0.9312479
6.3294074 28.6009337 1.7380097 0.2628087 0.0115336 0.9647790
5.3545645 28.6495594 1.9592295 0.1537952 0.0140218 0.9880032
4.3469270 28.7619881 2.0713017 0.0850997 0.0611696 0.9944930
3.3091544 28.9270137 2.0943903 -0.0093013 0.1511464 0.9884676
2.1794561 29.2583733 1.8349930 -0.2583084 0.2670685 0.9284133
0.8248112 29.9890921 0.8987199 -0.5095925 0.3216454 0.7980349
9.8535796 28.1333052 -0.6224583 0.8207723 0.1248296 0.5574499
9.0492386 27.7630713 0.3426443 0.6547197 0.0897510 0.7505244
8.1868424 27.5533058 1.0197777 0.5121948 0.0451663 0.8576809
7.2453225 27.5336486 1.3590669 0.3158098 0.0296422 0.9483594
6.2964057 27.5311598 1.6679263 0.2580380 0.1173264 0.9589843
5.3349588 27.5547573 1.9309637 0.1455452 0.0283091 0.9889465
4.3217469 27.6805102 2.0154227 0.1196759 -0.0112844 0.9927489
3.3215143 27.7732823 2.1587319 0.0924601 0.0890708 0.9917245
2.2600865 27.9756602 2.1122511 -0.2487624 0.1737451 0.9528536
0.9805108 28.5648476 1.3966829 -0.5654629 0.0705403 0.8217517
-0.5530239 29.5715251 -0.0351117 -0.6990137 0.2562931 0.6676030
10.6201588 27.4388781 -1.6934132 0.8824773 0.1384854 0.4495059
9.8717572 26.9147773 -0.4332882 0.7675582 0.0984464 0.6333741
9.0709385 26.5529687 0.5276970 0.6822292 0.1274581 0.7199429
8.2352496 26.2961390 1.2954918 0.5634922 0.2365667 0.7915256
7.3596267 26.1441847 1.8719210 0.3482593 0.3552756 0.8674645
6.4102964 26.1572664 2.1506916 0.1710094 0.4309709 0.8860135
5.3922086 26.3090295 2.1815228 0.1347866 0.4502112 0.8826904
4.3712656 26.4567231 2.2211911 0.2321056 0.5309575 0.8149915
2.9072960 23.9811106 7.5096968 0.4439055 0.7169695 0.5374966
1.9213865 21.1146752 13.4058211 0.6625568 0.2345024 0.7113559
1.0974232 21.0544401 13.7871426 0.2725058 0.0562347 0.9605094
0.1311601 21.2200239 13.7744600 -0.0854934 0.0872552 0.9925107
-0.9543419 21.5594350 13.4615964 -0.4491305 0.3632778 0.8162788
10.6586817 26.1593751 -1.3907076 0.8818092 0.0409013 0.4698293
9.8833006 25.7219321 -0.2742592 0.8022298 0.0226903 0.5965841
9.0840213 25.3723338 0.6755498 0.7355159 0.0612172 0.6747361
8.2805076 25.0575605 1.5576173 0.6293079 0.0815743 0.7728630
7.4085791 24.9106697 2.1285042 0.4835772 0.0444298 0.8741734
6.5012903 24.8465294 2.5465328 0.4777939 0.1374439 0.8676533
5.6451724 24.6847488 3.1418967 0.5968662 0.4548802 0.6609347
5.0357141 24.0579037 4.5809752 0.7463820 0.4654645 0.4756644
4.4708475 23.3864104 6.0943522 0.7639966 0.4228531 0.4873443
3.8932775 22.7780886 7.4864580 0.7826066 0.3871798 0.4874614
3.3154614 22.2055197 8.8077032 0.7661979 0.3094100 0.5632107
2.7911755 21.5737372 10.2292826 0.8602467 0.3373074 0.3823602
1.9495811 20.0764353 13.4698819 0.5529280 -0.0908077 0.8282660
1.0320858 20.1691385 13.5799788 0.0852103 -0.1856274 0.9789186
0.0773536 20.3143491 13.5978258 -0.1725658 -0.1750409 0.9693202
-1.0030914 20.6407395 13.2964706 -0.3830062 -0.0885968 0.9194873
11.3092727 25.7581687 -3.0371343 0.9400330 -0.0211864 0.3404249
10.6287572 25.0584894 -1.4036884 0.8884751 -0.0250528 0.4582406
9.8601477 24.6192080 -0.2687606 0.8088948 -0.0227746 0.5875122
9.0641408 24.2745679 0.6835006 0.7340221 -0.0562242 0.6767942
8.2431033 24.0091349 1.4835585 0.6320903 -0.0852953 0.7701861
7.3773111 23.8557742 2.0712518 0.5642038 0.0648652 0.8230836
6.5313344 23.6728163 2.7124659 0.6687505 0.2356209 0.7051635
5.8941612 23.0943301 4.0868641 0.7451347 0.4436409 0.4979528
5.2839836 22.5015179 5.4815907 0.7617412 0.3856810 0.5205771
4.6644734 21.9622423 6.7710106 0.8159394 0.2898948 0.5002038
4.0415508 21.4611934 7.9841967 0.8336236 0.1389223 0.5345767
3.4433845 20.9464424 9.2171665 0.8392052 0.1964366 0.5070970
2.9117270 20.3491256 10.5958412 0.9554827 -0.0784266 0.2844330
1.9109582 19.1506723 13.3408733 0.5724301 -0.3161936 0.7565351
0.9994155 19.2339434 13.4645543 0.0445387 -0.2534494 0.9663228
0.0273708 19.4042002 13.4316641 -0.1593047 -0.2219488 0.9619567
-1.0376149 19.7026956 13.1691499 -0.3401617 -0.2236630 0.9133810
-2.1757147 20.0917199 12.7469393 -0.7030891 0.0369984 0.7101386
11.2844129 24.6302501 -3.0133674 0.9455593 -0.0770432 0.3161991
10.5922785 23.9786239 -1.4473130 0.8910664 -0.1262859 0.4359501
9.8202572 23.5605135 -0.3373775 0.8108800 -0.1277955 0.5710884
9.0230867 23.2291544 0.6016580 0.7322986 -0.1113254 0.6718224
8.1950238 22.9873053 1.3659434 0.7344990 -0.0090002 0.6785501
7.4371483 22.6186996 2.3692219 0.7507060 0.2940258 0.5915990
6.8209072 21.9948780 3.8535962 0.7440381 0.4150907 0.5235523
6.1562175 21.5044846 5.0782473 0.7454320 0.3104128 0.5898941
5.4390553 21.1423156 6.0552001 0.7909548 -0.0713178 0.6077041
4.7589108 20.7358744 7.1116189 0.8546370 -0.1602066 0.4938922
4.0638106 20.3796685 8.0692000 0.7999940 -0.2208141 0.5578984
3.4234873 19.9513540 9.1579794 0.8973245 -0.3363610 0.2857796
2.7931716 19.5306292 10.2278950 0.8577963 -0.4424106 0.2616456
1.7733425 18.3813173 12.9256452 0.4513886 -0.6304025 0.6315387
0.9201143 18.3720383 13.2182256 0.1202775 -0.4851241 0.8661339
-0.0663738 18.5602557 13.1460965 -0.1431748 -0.4081423 0.9016212
-1.1088943 18.8200125 12.9443457 -0.3256594 -0.3806926 0.8654589
11.2127012 23.6223630 -3.2147378 0.9430068 -0.2107615 0.2575223
10.5040084 23.0241487 -1.7287693 0.8858486 -0.2383069 0.3980981
9.7519033 22.5696813 -0.5313813 0.8329474 -0.1895220 0.5198847
8.9734301 22.2060780 0.4832475 0.7979549 -0.0954296 0.5951145
8.2496362 21.7551126 1.6641931 0.8956267 0.0815080 0.4372748
7.6552114 21.0761384 3.2834883 0.8700879 0.0270796 0.4921521
6.9386003 20.6796429 4.3475083 0.8024143 -0.2290990 0.5510398
6.1821507 20.3836541 5.2127948 0.7184804 -0.4985544 0.4850045
5.3721409 20.2035764 5.8513290 0.5410556 -0.6531848 0.5297248
4.5831142 19.9975771 6.5376865 0.7009740 -0.6166097 0.3583684
3.8474395 19.7126815 7.3729713 0.6782611 -0.6591760 0.3247289
3.1712831 19.3454805 8.3623810 0.5805936 -0.8066507 0.1105703
2.4767800 19.0284236 9.2521495 0.5360613 -0.8366213 0.1127078
1.8343726 18.6469385 10.2608022 0.6218606 -0.7828305 0.0215824
0.7250337 17.6821164 12.6466376 0.1457819 -0.9321681 0.3313763
-0.2373483 17.8272598 12.6496257 -0.2161580 -0.8197198 0.5304103
-1.2902963 18.0933515 12.4271207 -0.5167717 -0.8048061 0.2919489
-10.1161564 17.2720279 16.9839424 0.7886171 0.1981806 0.5820718
-10.8551577 17.1451667 17.4877341 0.3015989 -0.0319648 0.9528989
-11.8523897 17.2998308 17.4818559 -0.0454501 0.1654473 0.9851708
-12.9090698 17.5113996 17.3752821 -0.0606416 0.3699005 0.9270902
-14.0113939 17.7625431 17.2000572 -0.1584021 0.1873265 0.9694419
11.0853774 22.7480316 -3.6822687 0.9270428 -0.3323995 0.1734998
10.3875938 22.1334651 -2.1390073 0.8865108 -0.3261174 0.3282470
9.6611629 21.6293508 -0.8237356 0.8248862 -0.3446517 0.4480825
8.8939091 21.2490229 0.2388163 0.8259637 -0.3499362 0.4419600
8.2053538 20.7359261 1.5612377 0.8221675 -0.4962781 0.2788345
7.5421514 20.2086666 2.9059452 0.8026877 -0.5507311 0.2288837
6.7582792 19.9458494 3.7214961 0.5076447 -0.7543416 0.4162519
5.9069760 19.8239400 4.2560902 0.3882562 -0.8758974 0.2864626
5.0846259 19.6581961 4.8755297 0.4159568 -0.8526829 0.3160883
4.2849310 19.4634886 5.5499015 0.4146614 -0.8733703 0.2554998
3.4944956 19.2648065 6.2298405 0.3731336 -0.9074530 0.1931331
2.7056760 19.0749169 6.8903816 0.3465436 -0.9331909 0.0951957
1.9513935 18.8410660 7.6342512 0.2337385 -0.9691861 -0.0777476
1.2065740 18.6053791 8.3790307 0.0818136 -0.9900350 -0.1146182
0.3006528 18.6232423 8.6309993 -0.0842246 -0.9860440 -0.1436090
-10.1166093 16.3268595 16.9004260 0.7475072 -0.1828376 0.6385949
-10.9221127 16.2752244 17.2694445 0.2129147 -0.2643073 0.9406429
-11.9282987 16.4365051 17.2455898 -0.0965182 -0.2535790 0.9624874
-12.9644723 16.6228529 17.1775194 -0.0988995 -0.2185071 0.9708107
-13.9967427 16.7985646 17.1310368 -0.1099425 -0.1998618 0.9736364
-15.0567876 16.9957487 17.0473481 -0.1431103 -0.1305317 0.9810611
10.2385415 21.3124998 -2.6981346 0.8551696 -0.4639355 0.2311901
9.5044872 20.8298440 -1.4050273 0.7812474 -0.5351080 0.3214217
8.7317006 20.4631199 -0.3536008 0.7204244 -0.5819121 0.3773155
7.9544838 20.1315222 0.6222572 0.6614516 -0.6782154 0.3201651
7.1581795 19.8595913 1.4734578 0.5138937 -0.8192348 0.2544948
6.3393343 19.6477571 2.2001653 0.4515704 -0.8583041 0.2437174
5.5387957 19.4167127 2.9631098 0.4230513 -0.8821639 0.2069166
4.7395774 19.1978597 3.6989107 0.3538259 -0.9140196 0.1984325
3.9089533 19.0453682 4.2993286 0.3173999 -0.9317747 0.1762194
3.0686904 18.9176787 4.8484758 0.1841437 -0.9741300 0.1310033
2.2072915 18.8309664 5.3145848 0.1027469 -0.9907875 0.0882229
1.3167100 18.7942621 5.6804409 -0.0879780 -0.9957357 0.0277530
0.2479452 19.0279036 5.5108703 -0.3750176 -0.9263950 -0.0339726
-1.3440919 20.0164925 3.8543401 -0.7113218 -0.6471700 0.2742120
-10.1674597 15.4388435 16.7150740 0.6744441 -0.2266305 0.7026832
-11.0110668 15.4287334 17.0075883 0.1334391 -0.2711872 0.9532321
-12.0146084 15.5838812 16.9891538 -0.0785956 -0.2887675 0.9541677
-13.0449803 15.7605318 16.9321889 -0.0984398 -0.2732558 0.9568913
-14.0808576 15.9363335 16.8788491 -0.1720852 -0.3479767 0.9215741
-15.1491364 16.1375967 16.7800879 -0.1488762 -0.4043466 0.9024077
9.9803688 20.7235922 -3.7549473 0.8418078 -0.5213578 0.1398059
9.2843801 20.1567808 -2.2634453 0.7802333 -0.5681980 0.2615092
8.5219609 19.7663194 -1.1453035 0.6477899 -0.6666071 0.3687862
7.6997115 19.5204274 -0.3315162 0.5113202 -0.7879434 0.3430697
6.8549270 19.3339294 0.3565763 0.4385327 -0.8567419 0.2714451
6.0290284 19.1255091 1.0876759 0.4071032 -0.8819802 0.2374404
5.2031223 18.9305595 1.7886321 0.3365208 -0.9171511 0.2135123
4.3455134 18.8018837 2.3514354 0.2281348 -0.9570384 0.1789750
3.4507352 18.7424947 2.7710954 0.1076878 -0.9861499 0.1261420
2.5359279 18.7187569 3.1173911 -0.0752054 -0.9891203 0.1264323
1.5533515 18.8020643 3.2458509 -0.1768306 -0.9787438 0.1038825
0.4712765 19.0315975 3.0789624 -0.3080737 -0.9453501 0.1067881
-0.8947234 19.6675527 2.0935418 -0.4627255 -0.8846437 0.0573634
-2.3162337 20.3497453 1.0224373 -0.8464808 -0.5300862 0.0497877
-10.2340704 14.5684028 16.4978503 0.4723013 -0.2593959 0.8424045
-11.1041953 14.5859664 16.7373988 0.0314897 -0.2901883 0.9564513
-12.1067001 14.7366557 16.7214529 -0.0728328 -0.2949455 0.9527342
-13.1382137 14.9106443 16.6626625 -0.0995219 -0.2841730 0.9535938
-14.1787545 15.0872127 16.6009918 -0.1828343 -0.2874965 0.9401688
-15.2430811 15.2803542 16.5098553 -0.2178397 -0.2731074 0.9369942
9.7573289 20.0429826 -4.6497222 0.9154534 -0.3872251 0.1095529
9.0726920 19.4539239 -3.0838739 0.8826223 -0.3697560 0.2902731
8.2904177 19.1015384 -2.0277101 0.7022437 -0.4955193 0.5111893
7.4474110 18.8901234 -1.2743062 0.5407360 -0.5844404 0.6050074
6.5447717 18.8031013 -0.7861218 0.3933523 -0.7176967 0.5746176
5.6642813 18.6824271 -0.2281154 0.5177076 -0.7186515 0.4642402
4.7840911 18.5690049 0.3132184 0.2303965 -0.9061488 0.3546996
3.8644923 18.5284572 0.7006092 0.0163314 -0.9657211 0.2590675
2.9067172 18.5521759 0.9533377 -0.0538248 -0.9805820 0.1885785
1.9263333 18.6100350 1.1352757 -0.1260188 -0.9908964 0.0473676
0.8351861 18.8337083 0.9737011 -0.2692148 -0.9625495 0.0319653
-0.3804645 19.2297992 0.4579240 -0.4555093 -0.8866821 0.0794109
-1.8859323 20.0231346 -0.8729738 -0.4454698 -0.8846790 0.1374762
-3.1595347 20.4486720 -1.4374861 -0.0139575 0.2151088 0.9764903
-4.3307895 20.7121581 -1.6643901 -0.0472269 0.2210804 0.9741114
-10.2935222 13.6909642 16.2951898 0.2232661 -0.5366163 0.8137538
-11.2000670 13.7452224 16.4616948 0.0688465 -0.3034315 0.9503628
-12.1958260 13.8858158 16.4594504 -0.0796005 -0.2857026 0.9550067
-13.2321178 14.0607101 16.3917923 -0.1099598 -0.2856530 0.9520038
-14.2743047 14.2349947 16.3274174 -0.1333987 -0.2895393 0.9478248
-15.3463028 14.4311386 16.2226314 -0.3751112 -0.1715427 0.9109691
8.9679285 18.5246990 -3.4359298 0.9154820 -0.1447964 0.3754021
8.2020782 18.1468198 -2.3079734 0.6974998 -0.1347770 0.7037963
7.3509130 17.9549692 -1.5871373 0.4731365 0.1218535 0.8725214
6.4371592 17.8890543 -1.1403603 0.4243020 -0.1199793 0.8975371
5.4751282 17.9116132 -0.8847382 0.0320888 -0.0387989 0.9987317
4.4826808 17.9840099 -0.7357622 0.1306643 -0.5594847 0.8184764
3.4669300 18.0899735 -0.6577122 -0.0550557 -0.7454748 0.6642561
2.4189099 18.2406723 -0.6737976 -0.2614082 -0.8713381 0.4152538
1.2524580 18.5646957 -1.0567204 -0.3622849 -0.8317717 0.4206013
0.0994901 18.8501345 -1.3538519 -0.4995632 -0.8608802 0.0965495
-4.2636436 19.5123705 -1.5021964 0.2822033 -0.1904818 0.9402542
-5.2890842 19.5718322 -1.3124380 -0.0615781 -0.0079163 0.9980709
-6.3904898 19.7253652 -1.3180338 -0.5361075 0.8241261 0.1827700
-10.3615404 12.8228168 16.0751829 0.3927762 -0.2849089 0.8743877
-11.2764497 12.8843647 16.2246467 0.0553187 -0.2662104 0.9623263
-12.2888686 13.0382209 16.1897780 -0.0874608 -0.2833309 0.9550258
-13.3206628 13.2049503 16.1310538 -0.1184753 -0.2896933 0.9497586
-14.3655545 13.3779930 16.0617827 -0.1423522 -0.2898408 0.9464292
-15.4511838 13.5824200 15.9322702 -0.3388807 -0.2721816 0.9005982
9.0048771 17.3154316 -3.1690840 0.8365826 0.2107744 0.5056715
8.2273328 16.9768990 -2.1117849 0.7213704 0.2209432 0.6563603
7.3982039 16.7564454 -1.3198218 0.4731214 0.2115787 0.8552138
6.4906956 16.6891644 -0.8683801 0.3145071 0.2426840 0.9177090
5.5300986 16.7167747 -0.6264411 0.1691335 0.2046849 0.9641047
4.5137129 16.8346161 -0.5820150 -0.0259655 0.2754963 0.9609514
3.4614193 17.0025245 -0.6455970 -0.0372826 0.1808674 0.9828006
2.3448832 17.2598955 -0.9021476 -0.3788662 -0.1538089 0.9125805
0.9414182 17.9339374 -2.0613851 -0.7127972 -0.3669312 0.5977304
-7.9251444 13.8721531 10.4760663 0.6997034 0.3807507 0.6045197
-8.6207561 13.6648757 11.1937874 0.4796650 0.2320812 0.8462032
-9.4848346 13.6422719 11.5246611 0.7643439 0.0420896 0.6434336
-10.4374403 11.9627420 15.8391741 0.2861112 -0.2616536 0.9217797
-11.3701311 12.0401986 15.9531813 -0.0016476 -0.2800904 0.9599722
-12.3812065 12.1892473 15.9214103 -0.0881783 -0.2972993 0.9507038
-13.4201124 12.3588539 15.8494844 -0.1144795 -0.2959766 0.9483102
-14.4630553 12.5261267 15.7844230 -0.1476355 -0.2929978 0.9446460
-15.5723654 12.7472855 15.6119989 -0.7559364 -0.1568321 0.6355815
9.2008752 15.8119776 -2.2094865 0.5403216 0.5351144 0.6493883
8.3644973 15.6095612 -1.4473831 0.4739116 0.4214540 0.7731651
7.4809049 15.5056163 -0.9105008 0.3849469 0.3318213 0.8612262
6.5603354 15.4724394 -0.5345015 0.2714470 0.2647427 0.9253258
5.5988005 15.5096723 -0.3172324 0.0931762 0.2108728 0.9730626
4.5799568 15.6369209 -0.3013107 0.0132185 0.2011325 0.9794749
3.5234872 15.8150808 -0.3975968 -0.1133824 0.1717850 0.9785879
2.3980313 16.0870940 -0.7008549 -0.2549099 0.2048595 0.9450151
1.1376372 16.5417933 -1.4067750 -0.4616308 0.1396199 0.8760156
-7.3121298 13.1900620 9.4821902 0.9497155 0.2283933 0.2141893
-7.8470725 12.8069047 10.5888497 0.7539022 -0.3407513 0.5617117
-8.6071265 12.6748626 11.1547213 0.5535008 -0.2651860 0.7895019
-9.4725330 12.6560435 11.4779972 0.8758598 -0.1072374 0.4704995
-9.7329680 12.0308560 13.0874395 0.9939692 0.0340775 0.1042304
-10.5067643 11.0962883 15.6165473 0.3930372 -0.2841391 0.8745209
-11.4605279 11.1921645 15.6881873 -0.0445205 -0.2991597 0.9531639
-12.4809245 11.3464569 15.6385974 -0.1021001 -0.3121926 0.9445165
-13.5176333 11.5100626 15.5715028 -0.1098478 -0.3012973 0.9471818
-14.5636799 11.6762318 15.5011436 -0.1867174 -0.2957611 0.9368361
-15.7249344 11.9381028 15.2341135 -0.6893554 -0.2156285 0.6915876
11.1157263 14.6412655 -2.5713813 0.5414928 0.5777746 0.6107062
10.2874999 14.4205861 -1.7549739 0.4564314 0.5475467 0.7013295
9.3927501 14.3412632 -1.2701791 0.3980555 0.4556497 0.7962005
8.4955084 14.2722258 -0.8102661 0.3687211 0.3960907 0.8409262
7.5777456 14.2437927 -0.4451554 0.3039188 0.3316301 0.8931152
6.6330535 14.2626055 -0.1893753 0.1902065 0.2611259 0.9463798
5.6514560 14.3402386 -0.0686276 0.0700504 0.2256990 0.9716753
4.6199041 14.4916341 -0.1160371 -0.0425287 0.1868134 0.9814744
3.5651433 14.6691271 -0.2211672 -0.1124406 0.1682120 0.9793170
2.4717519 14.8932176 -0.4302595 -0.2132484 0.1988049 0.9565572
1.2811766 15.2440547 -0.9246612 -0.3917088 0.2499177 0.8854973
-0.1017080 15.8438477 -1.9790126 -0.5675756 0.4069988 0.7156884
-7.5064462 12.4106803 8.9657800 0.7338392 -0.6080282 0.3029550
-8.1162488 12.1114269 9.9083674 0.6232676 -0.7120633 0.3232699
-8.9097546 12.0123389 10.4100645 0.5947041 -0.6949226 0.4042397
-9.5176925 11.7313904 11.3063513 0.9179945 -0.2013389 0.3416851
-9.7118009 11.0553037 13.0565765 0.9938339 -0.0590514 0.0938464
-9.9677067 10.4650067 14.6124114 0.8621571 -0.1741308 0.4757768
-10.5787397 10.2325814 15.3885400 0.3866034 -0.3646840 0.8470794
-11.5539510 10.3463157 15.4171055 -0.0578573 -0.2924051 0.9545427
-12.5783122 10.5005764 15.3602379 -0.1053684 -0.3015404 0.9476133
-13.6174523 10.6624701 15.2890492 -0.1164649 -0.3030061 0.9458452
-14.6786905 10.8380121 15.1908658 -0.1581531 -0.3117069 0.9369239
12.0873038 13.4575381 -2.5725979 0.6268584 0.4502490 0.6358651
11.2912374 13.1791928 -1.6063085 0.5776461 0.3867688 0.7188427
10.4247645 13.0565295 -1.0152213 0.4111523 0.3938715 0.8220822
9.5106115 13.0303498 -0.6553687 0.3206893 0.3980370 0.8594911
8.5938686 13.0106395 -0.3112156 0.2918791 0.3565270 0.8875219
7.6601664 13.0211611 -0.0388694 0.2235757 0.3013739 0.9269237
6.7049049 13.0664003 0.1516830 0.1101411 0.2510356 0.9616912
5.7085975 13.1739170 0.1962709 0.0463909 0.2384775 0.9700394
4.6787642 13.3262071 0.1372076 -0.0716094 0.1922171 0.9787363
3.6193814 13.5132064 -0.0010675 -0.1182170 0.1948260 0.9736876
2.5322111 13.7292569 -0.2046631 -0.1953494 0.1832118 0.9634688
1.3918993 14.0074616 -0.5500314 -0.2984957 0.2275671 0.9268838
0.1455662 14.4147855 -1.1913209 -0.4303484 0.3168881 0.8452113
-1.4524921 15.2669772 -2.8565243 -0.6318867 0.4529390 0.6289400
-7.9893493 11.9267074 7.7727373 0.7226035 -0.6867761 -0.0786312
-8.7680693 11.7976495 8.3520399 0.3847861 -0.9049693 0.1815772
-9.3183025 11.4455067 9.4280978 0.9220327 -0.3722178 0.1063470
-9.9536800 9.5152798 14.5634327 0.8101172 -0.1363553 0.5701906
-10.6637373 9.3810316 15.1339915 0.3320932 -0.2251426 0.9159831
-11.6446895 9.4972946 15.1513118 -0.0640699 -0.2937407 0.9537355
-12.6743796 9.6526489 15.0843737 -0.1081032 -0.2966517 0.9488474
-13.7214781 9.8176127 14.9984621 -0.1228807 -0.3041923 0.9446520
-14.7884165 9.9937624 14.8903290 -0.2158600 -0.3082896 0.9264783
14.2412398 11.7135758 -1.4590080 0.2190265 0.8390875 0.4979553
13.1869975 11.9958537 -1.8595062 -0.0370987 0.5997517 0.7993257
12.2020010 12.1148489 -1.8550958 0.3773616 0.3709153 0.8485400
11.3692910 11.9301619 -1.1051449 0.5888383 0.2372891 0.7726341
10.5034422 11.8213860 -0.5431354 0.4749330 0.2629604 0.8398158
9.5991382 11.7894493 -0.1697907 0.3324510 0.3034853 0.8929574
8.6742777 11.7951987 0.1115656 0.1258194 0.2402049 0.9625337
7.7322743 11.8290120 0.3250090 0.1496847 0.2035491 0.9675548
6.7603671 11.9085175 0.4285181 0.1734295 0.1713592 0.9698238
5.7649334 12.0193371 0.4576582 0.0024226 0.2015335 0.9794786
4.7279471 12.1855874 0.3551244 -0.0831707 0.1995329 0.9763551
3.6711820 12.3704478 0.2102506 -0.1269863 0.1782140 0.9757634
2.5898873 12.5789709 0.0113432 -0.1720648 0.1707006 0.9701830
1.4709084 12.8271590 -0.2792396 -0.2535966 0.2089488 0.9444729
0.3003800 13.1301642 -0.6966878 -0.3476239 0.2506141 0.9035210
-1.0387069 13.6353088 -1.5888551 -0.5255324 0.3370930 0.7811427
-7.4069476 13.2491633 1.4620555 0.8660428 0.3285675 0.3768465
-7.8234299 12.6787143 3.0876571 0.9751105 0.0317416 0.2194354
-8.4570988 11.4081955 6.6140417 0.7034653 -0.6925363 0.1597814
-9.1405910 11.1787536 7.4332376 0.8990581 -0.4346184 0.0529270
-9.9915977 8.6171480 14.4063828 0.7000984 -0.2291510 0.6762781
-10.7415921 8.5226241 14.8939848 0.2303458 -0.2341288 0.9445234
-11.7477777 8.6585876 14.8608014 -0.0863395 -0.2973742 0.9508491
-12.7743990 8.8073426 14.8007087 -0.1144956 -0.3032564 0.9460055
-13.8240059 8.9703761 14.7106336 -0.1257714 -0.2986034 0.9460537
-14.8892392 9.1407575 14.6063463 -0.2140351 -0.3175788 0.9237601
15.7482166 9.2835481 1.8010806 0.3587912 0.7745053 0.5209706
14.8614215 9.2817946 2.0899744 0.1806368 0.8343249 0.5208380
13.5600150 10.1296646 0.2355418 -0.4483157 0.6983228 0.5579949
12.2191661 10.9833220 -1.6217554 0.6598288 -0.0143804 0.7512784
11.3852400 10.8133674 -0.8991826 0.6150615 0.1522690 0.7736365
10.5430434 10.6716146 -0.2495135 0.4885859 0.1870714 0.8522254
9.6435572 10.6402669 0.1227324 0.3310131 0.2138785 0.9190682
8.7157644 10.6587035 0.3706745 0.1025119 0.2543479 0.9616644
7.7726866 10.7006193 0.5606125 0.1318468 0.2616720 0.9561089
6.8050838 10.7781073 0.6631098 0.1554571 0.2106793 0.9651152
5.8073333 10.8962052 0.6664722 -0.0094517 0.1909910 0.9815463
4.7855915 11.0420373 0.6032215 -0.0760587 0.2121482 0.9742732
3.7210439 11.2398097 0.4145370 -0.1211502 0.1961063 0.9730699
2.6451331 11.4415156 0.2189562 -0.1598873 0.2016239 0.9663249
1.5426041 11.6672545 -0.0324800 -0.2203649 0.2090811 0.9527457
0.3933648 11.9411726 -0.3980222 -0.2895110 0.2159201 0.9325030
-0.8361050 12.3017938 -0.9701360 -0.4319350 0.2622064 0.8629484
-2.2836295 12.9121816 -2.1415105 -0.5694799 0.3483670 0.7445355
-6.7890279 12.5603915 0.2448294 0.9236058 -0.0082241 0.3832553
-7.3019693 12.0867906 1.6780239 0.9193771 0.0579435 0.3890864
-7.8229107 11.6427093 3.0346971 0.9372902 -0.1696755 0.3044624
-8.3254920 11.1993946 4.3834324 0.8957451 -0.3884491 0.2162128
-8.8710798 10.8178843 5.5803721 0.8901106 -0.4160515 0.1860224
-9.7379105 8.2362260 12.7746093 0.9960478 0.0607714 0.0647729
-10.0408207 7.7307628 14.2258551 0.6681728 -0.1962030 0.7176695
-10.8326899 7.6757857 14.6269172 0.0845690 -0.3460999 0.9343784
-11.8415443 7.8106876 14.5888190 -0.0963271 -0.2941105 0.9509049
-12.8761853 7.9625690 14.5134957 -0.1161129 -0.3077849 0.9443444
-13.9215619 8.1179541 14.4322258 -0.1253676 -0.3007357 0.9454317
-14.9875284 8.2847364 14.3270209 -0.1925183 -0.3010408 0.9339760
16.2612413 7.0932625 4.9202410 0.4437211 0.7651405 0.4665529
15.4642647 6.9634396 5.5320477 0.1630166 0.8462097 0.5073014
14.4309442 7.3168945 4.8928828 -0.1787218 0.8513149 0.4932762
12.2262078 9.8810059 -1.4396562 0.7916759 0.0459115 0.6092137
11.4112850 9.6872910 -0.6466994 0.6309061 0.1058334 0.7686071
10.5647953 9.5642988 -0.0377769 0.5109605 0.0856361 0.8553279
9.6722602 9.5286910 0.3460109 0.3131197 0.1564203 0.9367437
8.7506082 9.5433135 0.6012354 0.2179523 0.1575589 0.9631573
7.8032253 9.5975782 0.7558789 0.1522575 0.1621728 0.9749449
6.8403156 9.6719074 0.8604165 0.0843775 0.1683451 0.9821102
5.8565936 9.7721538 0.9004747 0.0224965 0.1758702 0.9841563
4.8405011 9.9124091 0.8410732 -0.0566665 0.1980103 0.9785606
3.7933943 10.0871285 0.6969984 -0.1143297 0.2134624 0.9702384
2.7270541 10.2773913 0.5164171 -0.1549777 0.2311366 0.9604987
1.6257717 10.5023949 0.2516622 -0.2088954 0.2249309 0.9517189
0.4896439 10.7591025 -0.0889608 -0.2619236 0.2208497 0.9394794
-0.7089825 11.0791158 -0.5833438 -0.3843320 0.2268476 0.8948906
-2.0395226 11.5409548 -1.4247974 -0.5068301 0.2792093 0.8155768
-3.6502406 12.3074926 -3.0129326 -0.6003849 0.3864422 0.7001432
-5.1250351 12.8801097 -4.1122688 0.1205033 0.6782197 0.7249117
-5.7242709 12.4483577 -2.7349650 0.9324053 -0.0370785 0.3595075
-6.1802787 11.8813987 -1.0323869 0.9423575 -0.0322405 0.3330508
-6.7711034 11.4842487 0.2472306 0.9263747 -0.1471240 0.3466764
-7.3110896 11.0524454 1.6056871 0.8767019 -0.3421637 0.3381092
-7.9546519 10.7451045 2.6556577 0.9164153 -0.2026517 0.3451308
-8.5309563 10.3843921 3.8305915 0.8930558 -0.3790010 0.2425067
-9.0298442 9.9638578 5.1449410 0.8963930 -0.3778392 0.2317697
-10.0756960 6.8328767 14.0754079 0.7425230 -0.2465016 0.6228135
-10.9211439 6.8260124 14.3651974 0.1261296 -0.3767793 0.9176757
-11.9373462 6.9637664 14.3126976 -0.1069569 -0.2950113 0.9494886
-12.9779551 7.1167475 14.2262172 -0.1231663 -0.3043965 0.9445490
-14.0200863 7.2654833 14.1518795 -0.1232836 -0.2986962 0.9463518
-15.0823149 7.4250721 14.0541880 -0.2594268 -0.3355235 0.9056057
15.3473082 4.5144005 9.7693768 0.4198608 0.6032283 0.6781095
14.5593764 4.4534602 10.1934013 0.4361559 0.5452209 0.7158925
13.8332965 4.2868190 10.8950903 0.5186299 0.5369941 0.6653273
13.1019928 4.1420479 11.5369020 0.2762933 0.6544931 0.7037761
9.6776806 8.4651020 0.4674233 0.3260034 0.1244512 0.9371412
8.7584096 8.4806564 0.7182506 0.2433824 0.1278483 0.9614675
7.8241674 8.5181934 0.9120076 0.1595417 0.1306375 0.9785092
6.8638670 8.5920098 1.0120102 0.0972223 0.1317402 0.9865051
5.8914858 8.6784439 1.0803726 0.0492398 0.1495817 0.9875225
4.8890127 8.8014381 1.0554836 -0.1875610 0.1366076 0.9727072
3.8579385 8.9556373 0.9519364 -0.0916826 0.1245002 0.9879747
2.7989438 9.1373829 0.7798100 -0.1481651 0.1905228 0.9704371
1.7173672 9.3374963 0.5632260 -0.1967535 0.1919942 0.9614709
0.5900783 9.5831139 0.2332237 -0.2633551 0.2121138 0.9410908
-0.5948559 9.8849225 -0.2364498 -0.3428111 0.2266212 0.9116597
-1.8904862 10.3007580 -0.9915675 -0.3573967 0.2814414 0.8905382
-3.2991092 10.8244437 -2.0140094 -0.5715040 0.2677744 0.7756804
-5.0998842 11.7591839 -4.0676560 0.3078068 0.1872921 0.9328326
-5.7799527 11.4289303 -2.9202385 0.8643834 -0.1167782 0.4890850
-6.2821798 10.9256026 -1.3427118 0.9385186 -0.2277129 0.2594797
-6.8584728 10.5225815 -0.0237534 0.8556547 -0.3471610 0.3838415
-7.5198174 10.2241390 1.0281336 0.7973786 -0.4960137 0.3437408
-8.1670652 9.9250347 2.0773657 0.7510588 -0.5703023 0.3326649
-8.7790129 9.6047594 3.1748690 0.8162896 -0.5277592 0.2348224
-9.7614018 6.3767148 12.5747718 0.9887220 -0.0252156 0.1476247
-10.1370513 5.9593816 13.8697090 0.6217689 -0.2914765 0.7269421
-11.0117792 5.9775279 14.0989665 0.1323465 -0.2380207 0.9622009
-12.0332587 6.1161162 14.0362801 -0.1129959 -0.3012418 0.9468291
-13.0775395 6.2681270 13.9431246 -0.1075334 -0.2990957 0.9481447
-14.1176351 6.4113643 13.8733199 -0.1090137 -0.2848425 0.9523554
-15.1765792 6.5642982 13.7822656 -0.4982258 -0.2265721 0.8369206
16.2655461 3.3495194 10.1972470 0.7084855 0.4621569 0.5333473
15.5243647 3.2137474 10.8267259 0.2859669 0.6269590 0.7246691
14.6642156 3.3051409 10.8385467 0.3223900 0.5576774 0.7648926
13.9150437 3.1959488 11.3938553 0.5803818 0.4484567 0.6797379
13.2499200 2.9544523 12.3041665 0.4142560 0.1722698 0.8937086
12.4086837 3.0148031 12.3995407 -0.1771736 0.1926018 0.9651498
8.7758825 7.4102315 0.8749821 0.1976374 0.1318557 0.9713668
7.8384089 7.4568984 1.0407009 0.1677754 0.1304729 0.9771531
6.8832812 7.5260583 1.1471443 0.0976741 0.1394449 0.9854009
5.9195256 7.6028597 1.2342931 0.2717563 0.0735572 0.9595508
4.9298889 7.7100463 1.2420198 -0.1198166 0.2248071 0.9670087
3.9080273 7.8532158 1.1561978 -0.1047006 0.2367246 0.9659189
2.8551923 8.0275864 0.9902303 -0.0508441 0.2287967 0.9721455
1.7705272 8.2315444 0.7490500 -0.1857110 0.1671296 0.9682867
0.6673157 8.4465671 0.4818719 -0.2374665 0.1953641 0.9515474
-0.4887525 8.7120976 0.0858266 -0.3162401 0.2180958 0.9232694
-1.7467563 9.0803279 -0.5740261 -0.4601990 0.2104144 0.8625211
-3.1229975 9.5615297 -1.5221144 -0.5293576 0.2073794 0.8226630
-5.0281863 10.5938567 -3.8916835 0.7034889 -0.1483875 0.6950428
-5.8325548 10.4078780 -3.0970173 0.7434082 -0.1553628 0.6505434
-6.4752014 10.0632840 -1.8962861 0.8637619 -0.4308291 0.2613458
-7.0649547 9.6812364 -0.6043842 0.7143933 -0.6220630 0.3204369
-7.7910818 9.4513807 0.2918721 0.6902826 -0.6482330 0.3214091
-8.4649519 9.1812474 1.2876557 0.6938661 -0.6565176 0.2958624
-9.7869355 5.4628425 12.4456610 0.9589790 -0.0949946 0.2670866
-10.2059099 5.0927399 13.6483495 0.5660315 -0.1819884 0.8040451
-11.1042249 5.1298967 13.8289727 0.0688710 -0.2723880 0.9597195
-12.1242201 5.2636586 13.7697106 -0.1070059 -0.2885038 0.9514806
-13.1669714 5.4105424 13.6798608 -0.1151797 -0.2847174 0.9516668
-14.2119373 5.5538946 13.6009156 -0.1113525 -0.2903450 0.9504212
-15.2798771 5.7097371 13.4932760 -0.3108788 -0.2690012 0.9115880
16.3620622 2.2049858 10.8791939 0.7287086 0.3419862 0.5933205
15.6484537 2.0361430 11.6081105 0.4568646 0.4499066 0.7673714
14.8779898 1.9817290 12.0162352 0.2662253 0.5864340 0.7649962
13.9918170 2.1277841 11.8675214 0.3400313 0.5899150 0.7323790
13.2056474 2.0996281 12.2028859 0.1471166 -0.0795788 0.9859127
12.3823796 2.1317829 12.3714597 -0.4228588 -0.1283031 0.8970667
8.7908545 6.3515807 1.0206583 0.2099152 0.1314643 0.9688409
7.8562195 6.3978210 1.1831920 0.1748572 0.1414408 0.9743816
6.9090023 6.4587576 1.3062178 0.1128220 0.1549940 0.9814520
5.9482877 6.5342213 1.3905306 0.0650527 0.1543371 0.9858743
4.9646859 6.6352887 1.4063232 -0.0045163 0.1595639 0.9871773
3.9515667 6.7681508 1.3373788 -0.0826949 0.1648544 0.9828451
2.9092958 6.9295491 1.1932343 -0.1509948 0.1627597 0.9750435
1.8280516 7.1289349 0.9490355 -0.1845174 0.1636499 0.9691089
0.7408218 7.3243020 0.7186613 -0.2018570 0.1660751 0.9652320
-0.3852986 7.5536757 0.4000006 -0.2997329 0.1933202 0.9342309
-1.6266412 7.8995291 -0.2268234 -0.4255495 0.2123986 0.8796559
-3.0160228 8.3885822 -1.2304552 -0.6022582 0.1318093 0.7873445
-5.0028595 9.4864236 -3.8462460 -0.8501428 -0.2860223 0.4420955
-5.9835700 9.4903855 -3.5436898 0.4886306 -0.6145588 0.6193203
-6.7607333 9.2886915 -2.6970787 0.5655303 -0.8029752 0.1881654
-7.3976975 8.9581387 -1.5136337 0.6334759 -0.7590701 0.1500694
-8.1537270 8.7573292 -0.6764160 0.4156862 -0.8916081 0.1795549
-10.2830327 4.2331006 13.4096952 0.5460719 -0.3208556 0.7738587
-11.2005137 4.2846374 13.5510398 -0.0171487 -0.3101368 0.9505373
-12.2183446 4.4130662 13.4967397 -0.0978207 -0.2985131 0.9493793
-13.2542813 4.5507869 13.4207133 -0.1087614 -0.2863397 0.9519351
-14.3036337 4.6937505 13.3334535 -0.1258487 -0.2917526 0.9481785
-15.3867168 4.8567945 13.1975125 -0.4485427 -0.2756989 0.8501762
16.3952134 1.1970283 11.2174686 0.8135678 0.0933179 0.5739332
15.7037296 1.0016283 12.0335162 0.6762413 0.1956203 0.7102327
14.9914498 0.8581407 12.6983012 0.5469780 0.2447075 0.8005831
14.2294516 0.8080536 13.0948774 0.2258425 0.3452784 0.9109215
13.3705150 0.9155165 13.0432231 -0.2568600 0.5782278 0.7743872
9.7146317 5.2866312 0.9170826 0.2738136 0.1015145 0.9564104
8.8002225 5.3088946 1.1423989 0.2478042 0.0905316 0.9645710
7.8764528 5.3429426 1.3348640 0.1857073 0.1277573 0.9742643
6.9412403 5.3904653 1.4900039 0.1257676 0.1500440 0.9806474
5.9799817 5.4695992 1.5573232 0.0555615 0.1455285 0.9877927
5.0023175 5.5649608 1.5805326 0.0032294 0.1464845 0.9892077
3.9948200 5.6918723 1.5173220 -0.0628976 0.1474594 0.9870662
2.9563081 5.8489936 1.3721469 -0.1426502 0.1541298 0.9776988
1.8872869 6.0331484 1.1545082 -0.1888391 0.1533627 0.9699586
0.7958739 6.2327832 0.8969524 -0.2036253 0.1403926 0.9689307
-0.3156562 6.4441086 0.6102785 -0.2838497 0.1460431 0.9476818
-1.5102450 6.7345931 0.1094062 -0.4382623 0.1663424 0.8833212
-2.9002751 7.2171524 -0.9131603 -0.6053922 0.1649144 0.7786550
-4.6843935 8.0825018 -2.9739513 -0.8709221 -0.0837618 0.4842300
-6.3326649 8.7689288 -4.5339619 -0.2284456 -0.9572894 0.1772278
-7.2671317 8.7208415 -4.0881976 0.0842548 -0.9919897 0.0941144
-9.8810326 3.6763888 12.0956779 0.9432940 -0.2501335 0.2182421
-10.3799306 3.3890953 13.1295639 0.4886577 -0.4056260 0.7724514
-11.2987322 3.4400270 13.2690734 0.0051534 -0.3723810 0.9280656
-12.3172428 3.5653855 13.2141168 -0.0985109 -0.3358127 0.9367633
-13.3511194 3.6977420 13.1427953 -0.1064716 -0.3359852 0.9358300
-14.3942302 3.8321969 13.0680497 -0.1576134 -0.3190952 0.9345246
-15.5121224 4.0161695 12.8666271 -0.6929147 -0.2495668 0.6764508
16.9918431 0.6429028 9.9891805 0.9366602 -0.1718254 0.3051947
16.3719446 0.3027430 11.2510807 0.8463246 -0.0776360 0.5269795
15.6974272 0.0869957 12.1416085 0.7324793 -0.0598859 0.6781503
14.9906514 -0.0570812 12.8184545 0.6261194 -0.0445173 0.7784553
14.2633541 -0.1568313 13.3633244 0.4767699 -0.0103105 0.8789677
13.4675166 -0.1432912 13.5760487 -0.1382546 0.1034421 0.9849799
9.6963256 4.2881762 0.9331801 0.3119146 0.0600092 0.9482131
8.8081069 4.2755192 1.2573943 0.2547930 0.0889043 0.9629001
7.8922385 4.3019818 1.4681937 0.1780510 0.0989248 0.9790361
6.9618240 4.3461504 1.6283109 0.1372069 0.0893958 0.9865002
6.0046352 4.4221565 1.6974942 0.0411120 0.0971945 0.9944159
5.0256685 4.5207660 1.7030054 0.0024210 0.0972742 0.9952547
4.0348855 4.6278152 1.6859231 -0.0624779 0.0940486 0.9936052
